# .PCD v0.7 - Point Cloud Data file format
VERSION 0.7
FIELDS x y z rgb
SIZE 4 4 4 4
TYPE F F F F
COUNT 1 1 1 1
WIDTH 1016
HEIGHT 1
VIEWPOINT 0 0 0 1 0 0 0
POINTS 1016
DATA ascii
0.57554698 -0.27515107 0.7604503 1.9281706e-38
0.57740837 -0.26585037 0.76044303 1.9281706e-38
0.58090079 -0.26262581 0.76023978 1.9281706e-38
0.57892048 -0.25531194 0.76016235 1.9281706e-38
0.58167076 -0.25412127 0.76042098 1.9281706e-38
0.58333117 -0.24462375 0.76034904 1.9281706e-38
0.58624238 -0.23535083 0.76027131 1.9281706e-38
0.59160143 -0.23254697 0.76032966 1.9281706e-38
0.58767819 -0.22468878 0.76060462 1.9281706e-38
0.59324056 -0.22447109 0.76049119 1.9281706e-38
0.58651108 -0.21481465 0.76087856 1.9281706e-38
0.59492791 -0.21510668 0.76102734 1.9281706e-38
0.58677334 -0.20491795 0.76161325 1.9281706e-38
0.59564555 -0.20505062 0.7611323 1.9281706e-38
0.60539454 -0.20575203 0.76501775 1.9281706e-38
0.58761191 -0.19519468 0.76161087 1.9281706e-38
0.59513801 -0.19502361 0.76171845 1.9281706e-38
0.6018436 -0.19499661 0.76021552 1.9281706e-38
0.61143655 -0.19246307 0.76137322 1.9281706e-38
0.58887422 -0.18692422 0.7610172 1.9281706e-38
0.59494799 -0.18488774 0.76134169 1.9281706e-38
0.60191083 -0.18959551 0.76014447 1.9281706e-38
0.5936653 -0.17800653 0.76066893 1.9281706e-38
0.61748242 0.23973757 0.62785 1.0257219e-38
0.62798226 0.23963107 0.62857467 1.0257219e-38
0.60537577 0.24552526 0.6270659 1.0257219e-38
0.61166024 0.24042347 0.62828684 1.0257219e-38
0.59671736 0.25628117 0.62585813 1.0257219e-38
0.600806 0.25122732 0.62696803 1.0257219e-38
0.58716285 0.26695442 0.62524348 1.0257219e-38
0.59190553 0.26190981 0.62493116 1.0257219e-38
0.57759553 0.27769387 0.62565184 1.0257219e-38
0.58200979 0.27275851 0.62450653 1.0257219e-38
0.56928498 0.28834105 0.62543154 1.0257219e-38
0.57273793 0.28334296 0.62460703 1.0257219e-38
0.56518734 0.29499403 0.62469923 1.0257219e-38
0.54175389 0.30232197 0.62443483 1.0257219e-38
0.55649865 0.30611593 0.62549883 1.0257219e-38
0.56127882 0.30176273 0.62238747 1.0257219e-38
0.54753232 0.31699893 0.62653857 1.0257219e-38
0.55181336 0.31243515 0.62443084 1.0257219e-38
0.54355007 0.32360244 0.62551665 1.0257219e-38
0.54554236 0.33344352 0.62765765 1.0257219e-38
0.61830127 0.23939341 0.63094008 1.0257219e-38
0.62365115 0.2391777 0.63434201 1.0257219e-38
0.60577005 0.24617322 0.63505447 1.0257219e-38
0.61399543 0.24127661 0.63396037 1.0257219e-38
0.59715998 0.25675169 0.63479501 1.0257219e-38
0.60134679 0.2518445 0.63494807 1.0257219e-38
0.58707058 0.26703894 0.63473523 1.0257219e-38
0.59205151 0.26221409 0.63513577 1.0257219e-38
0.57787591 0.27737737 0.63508594 1.0257219e-38
0.58246028 0.27242807 0.63530147 1.0257219e-38
0.5683499 0.28789482 0.63519233 1.0257219e-38
0.57276195 0.28283569 0.63487685 1.0257219e-38
0.55908209 0.2988033 0.63556385 1.0257219e-38
0.56340241 0.29380953 0.63528401 1.0257219e-38
0.55486625 0.30466291 0.63521063 1.0257219e-38
0.54723716 0.31600088 0.63547355 1.0257219e-38
0.55077571 0.3107869 0.63438565 1.0257219e-38
0.54342097 0.32355207 0.63484192 1.0257219e-38
0.53841215 0.33561546 0.6300084 1.0257219e-38
0.61619431 0.23831207 0.64659953 1.0257219e-38
0.62279224 0.23518817 0.64732176 1.0257219e-38
0.60695612 0.24626675 0.64484739 1.0257219e-38
0.61118138 0.24147686 0.6454919 1.0257219e-38
0.59766006 0.25705042 0.64457929 1.0257219e-38
0.60202038 0.25213116 0.64504296 1.0257219e-38
0.58772033 0.26743445 0.64505208 1.0257219e-38
0.59272027 0.26236132 0.6445691 1.0257219e-38
0.5779742 0.27755684 0.6450597 1.0257219e-38
0.58263087 0.27269036 0.64513576 1.0257219e-38
0.56841779 0.28783932 0.64494646 1.0257219e-38
0.57293445 0.2828756 0.64473009 1.0257219e-38
0.55910319 0.29870296 0.64448303 1.0257219e-38
0.56313467 0.29381216 0.64509684 1.0257219e-38
0.55407482 0.30505651 0.64504606 1.0257219e-38
0.54686248 0.31529763 0.64529598 1.0257219e-38
0.55019885 0.31057492 0.64366138 1.0257219e-38
0.54395175 0.32429826 0.64501971 1.0257219e-38
0.54848355 0.33070996 0.6437571 1.0257219e-38
0.61719418 0.23849401 0.65440404 1.0257219e-38
0.62251097 0.23635723 0.65572685 1.0257219e-38
0.60708481 0.24693309 0.65488368 1.0257219e-38
0.6131345 0.24190068 0.65554029 1.0257219e-38
0.5972684 0.2574068 0.65464085 1.0257219e-38
0.6021679 0.25228894 0.65494663 1.0257219e-38
0.58737552 0.26740804 0.65574276 1.0257219e-38
0.59222811 0.26249856 0.65475333 1.0257219e-38
0.57769316 0.27755854 0.65490973 1.0257219e-38
0.58245128 0.27259445 0.65488303 1.0257219e-38
0.56798166 0.28786486 0.65495914 1.0257219e-38
0.57279962 0.28261721 0.65518695 1.0257219e-38
0.55891031 0.2988334 0.6547116 1.0257219e-38
0.56306893 0.29369134 0.6551218 1.0257219e-38
0.55408645 0.3050091 0.65518135 1.0257219e-38
0.54625052 0.31511047 0.65526146 1.0257219e-38
0.55020595 0.31011629 0.65308422 1.0257219e-38
0.545564 0.32510364 0.65495151 1.0257219e-38
0.5488919 0.33114538 0.65486425 1.0257219e-38
0.61742997 0.23927842 0.66597104 1.0257219e-38
0.62236118 0.23667036 0.66564256 1.0257219e-38
0.59590936 0.2435547 0.660676 1.0257219e-38
0.60717452 0.24737129 0.66519547 1.0257219e-38
0.61290282 0.24249861 0.66568685 1.0257219e-38
0.59735614 0.25721502 0.66481096 1.0257219e-38
0.60217267 0.25217912 0.66508991 1.0257219e-38
0.58735019 0.26736832 0.66560882 1.0257219e-38
0.59225714 0.26244697 0.6647535 1.0257219e-38
0.57759428 0.27764019 0.66484898 1.0257219e-38
0.58234745 0.27258563 0.66513562 1.0257219e-38
0.56794417 0.28813443 0.66454566 1.0257219e-38
0.5727815 0.28298351 0.66503268 1.0257219e-38
0.55890727 0.29862759 0.664994 1.0257219e-38
0.56311446 0.29376638 0.66471505 1.0257219e-38
0.54984397 0.30960006 0.66942167 1.0257219e-38
0.55399644 0.30473006 0.66509044 1.0257219e-38
0.54604387 0.31467912 0.66512686 1.0257219e-38
0.54347813 0.32451728 0.66687435 1.0257219e-38
0.54430765 0.33057892 0.66898423 1.0257219e-38
0.61786228 0.22645369 0.67911917 1.0257219e-38
0.61803937 0.23855607 0.67436308 1.0257219e-38
0.62195128 0.23698556 0.67729455 1.0257219e-38
0.60724676 0.24715611 0.67532158 1.0257219e-38
0.61366498 0.2421532 0.6761598 1.0257219e-38
0.59748203 0.25730669 0.67493337 1.0257219e-38
0.60222709 0.25229692 0.67506719 1.0257219e-38
0.61355209 0.25554952 0.67640948 1.0257219e-38
0.58759803 0.26741457 0.67520982 1.0257219e-38
0.59250212 0.26237968 0.67479098 1.0257219e-38
0.57762879 0.277679 0.67502964 1.0257219e-38
0.58261615 0.27258167 0.67495686 1.0257219e-38
0.56797463 0.28785741 0.67469472 1.0257219e-38
0.5729875 0.28310099 0.6748988 1.0257219e-38
0.55855024 0.29862359 0.67591262 1.0257219e-38
0.56289476 0.2935414 0.67483968 1.0257219e-38
0.54957044 0.30958575 0.67626989 1.0257219e-38
0.55342972 0.30493081 0.67490464 1.0257219e-38
0.5457598 0.31473127 0.67467862 1.0257219e-38
0.54566127 0.32465652 0.67261988 1.0257219e-38
0.550412 0.3284238 0.67127323 1.0257219e-38
0.5480572 0.33057982 0.6795485 1.0257219e-38
0.61923379 0.23926222 0.6862635 1.0257219e-38
0.62344962 0.23731306 0.68420899 1.0257219e-38
0.60740203 0.24770087 0.68400532 1.0257219e-38
0.61418903 0.24283236 0.68559885 1.0257219e-38
0.58853453 0.25396988 0.68721235 1.0257219e-38
0.59746867 0.25734305 0.68493843 1.0257219e-38
0.60242283 0.25225967 0.68502468 1.0257219e-38
0.58748245 0.26751745 0.68480635 1.0257219e-38
0.59241325 0.26253328 0.68495113 1.0257219e-38
0.57766485 0.2775169 0.68506199 1.0257219e-38
0.58256155 0.27242929 0.68529314 1.0257219e-38
0.56803095 0.28782898 0.68496752 1.0257219e-38
0.57263392 0.28289455 0.68490529 1.0257219e-38
0.55854642 0.29844487 0.68545854 1.0257219e-38
0.56282258 0.29349878 0.68506718 1.0257219e-38
0.54952163 0.30936238 0.68593735 1.0257219e-38
0.55364287 0.30436999 0.68487263 1.0257219e-38
0.54586798 0.31475562 0.68511575 1.0257219e-38
0.54588372 0.32435396 0.68589544 1.0257219e-38
0.54742056 0.33054295 0.68549317 1.0257219e-38
0.61782247 0.23846899 0.69600761 1.0257219e-38
0.6239019 0.23711644 0.69597632 1.0257219e-38
0.60708612 0.2470268 0.69551122 1.0257219e-38
0.61339706 0.24206404 0.69421339 1.0257219e-38
0.59716064 0.2572619 0.69503123 1.0257219e-38
0.6021601 0.25213739 0.69492441 1.0257219e-38
0.58733773 0.26738161 0.69509149 1.0257219e-38
0.59217769 0.26241836 0.69527781 1.0257219e-38
0.57776421 0.27738202 0.69499415 1.0257219e-38
0.58230376 0.27261043 0.69504541 1.0257219e-38
0.56788301 0.28803539 0.69525397 1.0257219e-38
0.57267207 0.28279522 0.69501132 1.0257219e-38
0.5588578 0.29829833 0.69501376 1.0257219e-38
0.56316465 0.2934531 0.69487387 1.0257219e-38
0.54965615 0.30931833 0.69146109 1.0257219e-38
0.5536986 0.30466989 0.6949321 1.0257219e-38
0.54866284 0.31531057 0.6930089 1.0257219e-38
0.55077565 0.31291786 0.69451338 1.0257219e-38
0.54776955 0.32456213 0.6927563 1.0257219e-38
0.61573714 0.23886861 0.70514768 1.0257219e-38
0.62387997 0.23934405 0.70095712 1.0257219e-38
0.60694534 0.2470426 0.70529252 1.0257219e-38
0.61171788 0.24192239 0.70494944 1.0257219e-38
0.62689853 0.24173573 0.70242697 1.0257219e-38
0.63068122 0.24055907 0.70080781 1.0257219e-38
0.59721726 0.256917 0.70494783 1.0257219e-38
0.60192764 0.25216678 0.7050795 1.0257219e-38
0.57559776 0.26617986 0.70783818 1.0257219e-38
0.58726633 0.26728252 0.7049951 1.0257219e-38
0.5921365 0.26218343 0.70521748 1.0257219e-38
0.57769912 0.27736828 0.70512551 1.0257219e-38
0.58239293 0.27238649 0.70497781 1.0257219e-38
0.56796247 0.28795776 0.70494086 1.0257219e-38
0.57262808 0.28302562 0.70506203 1.0257219e-38
0.55867869 0.29882297 0.7048493 1.0257219e-38
0.56306469 0.2935369 0.70505798 1.0257219e-38
0.54977906 0.30964562 0.70378178 1.0257219e-38
0.55372506 0.30470824 0.70512456 1.0257219e-38
0.54621452 0.31438178 0.70591819 1.0257219e-38
0.53608036 0.32080784 0.70095825 1.0257219e-38
0.54379964 0.32476187 0.70605206 1.0257219e-38
0.54467386 0.3302418 0.7090131 1.0257219e-38
0.61686122 0.23881526 0.71460038 1.0257219e-38
0.62505299 0.23778588 0.71540564 1.0257219e-38
0.6074605 0.24740985 0.71508098 1.0257219e-38
0.61237955 0.24222377 0.71477121 1.0257219e-38
0.59732455 0.25726825 0.71478575 1.0257219e-38
0.60264736 0.25219041 0.71458578 1.0257219e-38
0.57937014 0.26591256 0.71971005 1.0257219e-38
0.58706915 0.26690167 0.71468967 1.0257219e-38
0.5921486 0.26197132 0.71511847 1.0257219e-38
0.57749081 0.27765435 0.71487099 1.0257219e-38
0.58212328 0.2725085 0.71531498 1.0257219e-38
0.56833422 0.2877678 0.71484339 1.0257219e-38
0.57271498 0.28294018 0.71503478 1.0257219e-38
0.55898702 0.29851311 0.71491241 1.0257219e-38
0.56332248 0.29345629 0.71505749 1.0257219e-38
0.54961264 0.30947953 0.71500224 1.0257219e-38
0.55400771 0.30429026 0.71520364 1.0257219e-38
0.5462054 0.31454244 0.71477091 1.0257219e-38
0.54541773 0.32513869 0.71412969 1.0257219e-38
0.54582095 0.33092225 0.71367323 1.0257219e-38
0.61757571 0.23931544 0.7224648 1.0257219e-38
0.62393761 0.23790783 0.72546542 1.0257219e-38
0.60751396 0.24733663 0.72490889 1.0257219e-38
0.61316633 0.24204475 0.72546744 1.0257219e-38
0.59723091 0.25742686 0.72498542 1.0257219e-38
0.60252982 0.25245383 0.72475904 1.0257219e-38
0.58734 0.26708952 0.72495162 1.0257219e-38
0.59228623 0.26211348 0.72504723 1.0257219e-38
0.57771158 0.27747169 0.72494757 1.0257219e-38
0.58240336 0.27248153 0.72522378 1.0257219e-38
0.56810337 0.2880187 0.72532767 1.0257219e-38
0.57248187 0.28312251 0.72484922 1.0257219e-38
0.55888051 0.29885006 0.72507548 1.0257219e-38
0.56310332 0.29388306 0.72485697 1.0257219e-38
0.54970098 0.30974773 0.72532558 1.0257219e-38
0.55387598 0.30472648 0.72515708 1.0257219e-38
0.54656196 0.31499985 0.72551209 1.0257219e-38
0.56063807 0.31080887 0.72047824 1.0257219e-38
0.54385138 0.32479629 0.72610366 1.0257219e-38
0.54279381 0.33008623 0.7258848 1.0257219e-38
0.61939102 0.23987024 0.73234707 1.0257219e-38
0.62468779 0.23873816 0.73569798 1.0257219e-38
0.60759097 0.24734373 0.73476321 1.0257219e-38
0.61430514 0.24219283 0.73546273 1.0257219e-38
0.62136245 0.24060832 0.73960102 1.0257219e-38
0.59752053 0.25752378 0.73504663 1.0257219e-38
0.60258281 0.2525124 0.73508602 1.0257219e-38
0.58713359 0.26737818 0.73517531 1.0257219e-38
0.59250778 0.262357 0.73463684 1.0257219e-38
0.57771254 0.27739534 0.73541325 1.0257219e-38
0.58216697 0.27260661 0.73491395 1.0257219e-38
0.56825656 0.28790036 0.73532897 1.0257219e-38
0.57272267 0.28284952 0.73489654 1.0257219e-38
0.55902499 0.298783 0.73507589 1.0257219e-38
0.56326616 0.29375401 0.73476332 1.0257219e-38
0.55398411 0.30488431 0.73484218 1.0257219e-38
0.54838771 0.31556261 0.7350139 1.0257219e-38
0.55038029 0.31060126 0.73319787 1.0257219e-38
0.53352988 0.32034162 0.73175901 1.0257219e-38
0.5453043 0.32501116 0.73501235 1.0257219e-38
0.54360849 0.33042452 0.73435444 1.0257219e-38
0.6274969 0.23937787 0.74397784 1.0257219e-38
0.60758549 0.24762344 0.74472231 1.0257219e-38
0.61309415 0.24306791 0.74526685 1.0257219e-38
0.62400621 0.24106723 0.74314916 1.0257219e-38
0.597314 0.2573787 0.7449199 1.0257219e-38
0.6028164 0.25246257 0.74516875 1.0257219e-38
0.61969858 0.25168869 0.7458815 1.0257219e-38
0.58712488 0.26719555 0.74475479 1.0257219e-38
0.5923956 0.26218572 0.74546736 1.0257219e-38
0.57765549 0.27784333 0.74501991 1.0257219e-38
0.58224344 0.27267683 0.74508202 1.0257219e-38
0.56822324 0.28819034 0.74482667 1.0257219e-38
0.57276553 0.28349343 0.74535418 1.0257219e-38
0.55896807 0.29861563 0.74515182 1.0257219e-38
0.56336033 0.29357684 0.74509794 1.0257219e-38
0.54957277 0.30977687 0.74427909 1.0257219e-38
0.55400509 0.3047148 0.7449795 1.0257219e-38
0.54677635 0.31439182 0.74568707 1.0257219e-38
0.54404706 0.32591233 0.74532998 1.0257219e-38
0.54521871 0.3306334 0.74407697 1.0257219e-38
0.61803854 0.23936872 0.75638258 1.0257219e-38
0.62343907 0.23754263 0.75681132 1.0257219e-38
0.59813702 0.24757807 0.75353664 1.0257219e-38
0.60771257 0.24724646 0.75456357 1.0257219e-38
0.61267966 0.24283352 0.75515121 1.0257219e-38
0.59757078 0.25770196 0.75518084 1.0257219e-38
0.60266405 0.25277638 0.75521666 1.0257219e-38
0.58774573 0.26755816 0.75457942 1.0257219e-38
0.59257847 0.26265255 0.75543213 1.0257219e-38
0.57821369 0.27798423 0.75478405 1.0257219e-38
0.58283585 0.27299356 0.75524437 1.0257219e-38
0.56874269 0.28838372 0.75453871 1.0257219e-38
0.57344311 0.28339931 0.75505793 1.0257219e-38
0.55923587 0.29894459 0.75463879 1.0257219e-38
0.56373215 0.29398364 0.75517905 1.0257219e-38
0.54958904 0.30944955 0.75359851 1.0257219e-38
0.55422378 0.30445561 0.75508291 1.0257219e-38
0.54513907 0.31526998 0.75500923 1.0257219e-38
0.53995693 0.32165152 0.75039577 1.0257219e-38
0.54526657 0.3250154 0.75467372 1.0257219e-38
0.5483678 0.33086479 0.75525421 1.0257219e-38
0.61759531 0.23935729 0.76552445 1.0257219e-38
0.62370634 0.23802081 0.76551312 1.0257219e-38
0.60770655 0.24789509 0.76527756 1.0257219e-38
0.61293977 0.24271691 0.76492274 1.0257219e-38
0.59798777 0.25772464 0.76490402 1.0257219e-38
0.60265929 0.2529439 0.76526111 1.0257219e-38
0.5881803 0.26802602 0.764736 1.0257219e-38
0.59300917 0.26299503 0.76525909 1.0257219e-38
0.57847571 0.2784127 0.76512599 1.0257219e-38
0.58307713 0.27347663 0.76511246 1.0257219e-38
0.56883538 0.28875965 0.7647984 1.0257219e-38
0.57338727 0.28384355 0.76499492 1.0257219e-38
0.55930269 0.29917637 0.76504266 1.0257219e-38
0.56376725 0.29432979 0.76516223 1.0257219e-38
0.54953253 0.30963707 0.76293206 1.0257219e-38
0.55421299 0.30473125 0.76524758 1.0257219e-38
0.54597002 0.31421018 0.76530087 1.0257219e-38
0.54472446 0.32492802 0.76653379 1.0257219e-38
0.61960506 0.23967092 0.77090216 1.0257219e-38
0.62526518 0.23930304 0.77275562 1.0257219e-38
0.60849136 0.24818256 0.77418971 1.0257219e-38
0.61385053 0.24342158 0.77553988 1.0257219e-38
0.62593943 0.24086504 0.77643412 1.0257219e-38
0.59825397 0.258531 0.77434832 1.0257219e-38
0.60366774 0.25323179 0.77512497 1.0257219e-38
0.58846432 0.26838338 0.77507192 1.0257219e-38
0.59331638 0.26343915 0.77505028 1.0257219e-38
0.57851303 0.27858564 0.7750479 1.0257219e-38
0.58349657 0.27351359 0.77507269 1.0257219e-38
0.56884497 0.28898692 0.77463627 1.0257219e-38
0.57352191 0.28390506 0.77500969 1.0257219e-38
0.55946743 0.29949123 0.77498257 1.0257219e-38
0.56381226 0.29454288 0.77512223 1.0257219e-38
0.55473095 0.30510008 0.77468324 1.0257219e-38
0.54643399 0.31489176 0.77474761 1.0257219e-38
0.55038404 0.31032151 0.7756421 1.0257219e-38
0.54513729 0.32481092 0.77494508 1.0257219e-38
0.54559958 0.33237112 0.7752381 1.0257219e-38
0.62446922 0.23936264 0.78684694 1.0257219e-38
0.5970881 0.24720013 0.7862221 1.0257219e-38
0.60809827 0.24932814 0.78546566 1.0257219e-38
0.61550283 0.24477488 0.78388238 1.0257219e-38
0.62180877 0.24109988 0.78620362 1.0257219e-38
0.59845233 0.25833544 0.78504354 1.0257219e-38
0.6033572 0.25351188 0.78502744 1.0257219e-38
0.58857942 0.26840556 0.78511578 1.0257219e-38
0.59341681 0.2634815 0.78488934 1.0257219e-38
0.57865024 0.27863976 0.78488493 1.0257219e-38
0.58341634 0.27367398 0.78519595 1.0257219e-38
0.56911612 0.28893578 0.78405559 1.0257219e-38
0.57361972 0.28409508 0.78515393 1.0257219e-38
0.55945778 0.299613 0.78480029 1.0257219e-38
0.56411529 0.29446033 0.78513533 1.0257219e-38
0.5548436 0.30497113 0.78470182 1.0257219e-38
0.54689246 0.31505218 0.78470725 1.0257219e-38
0.55029619 0.31039721 0.78463238 1.0257219e-38
0.54651409 0.32492542 0.78403735 1.0257219e-38
0.54737073 0.3302297 0.78195208 1.0257219e-38
0.61429 0.23229071 0.79490769 1.0257219e-38
0.62559062 0.23919237 0.79519308 1.0257219e-38
0.60864818 0.24907506 0.79419959 1.0257219e-38
0.61477005 0.24549533 0.79453897 1.0257219e-38
0.6218676 0.24133514 0.7947244 1.0257219e-38
0.59855062 0.25857443 0.79530382 1.0257219e-38
0.60348773 0.25362763 0.79500473 1.0257219e-38
0.58860296 0.26851603 0.79473406 1.0257219e-38
0.59354722 0.26343819 0.79496628 1.0257219e-38
0.57891041 0.27872577 0.79475665 1.0257219e-38
0.5837152 0.27368402 0.79503888 1.0257219e-38
0.56911057 0.28909165 0.79477769 1.0257219e-38
0.5738914 0.2839967 0.79523492 1.0257219e-38
0.55962473 0.2993876 0.79426157 1.0257219e-38
0.56408131 0.29452541 0.7952137 1.0257219e-38
0.55498457 0.30495378 0.79466569 1.0257219e-38
0.54720408 0.3156378 0.79412574 1.0257219e-38
0.55087137 0.31121609 0.79666519 1.0257219e-38
0.54288292 0.3240352 0.79675239 1.0257219e-38
0.62620181 0.23929805 0.80224258 1.0257219e-38
0.60915697 0.24905699 0.80437076 1.0257219e-38
0.61452585 0.2450833 0.8062256 1.0257219e-38
0.62530655 0.24248737 0.8053081 1.0257219e-38
0.6307497 0.24613278 0.80741519 1.0257219e-38
0.59896284 0.25912446 0.8043859 1.0257219e-38
0.60438484 0.25435054 0.80544126 1.0257219e-38
0.61071378 0.25082082 0.80965495 1.0257219e-38
0.58870578 0.2686016 0.80307806 1.0257219e-38
0.59429759 0.26437885 0.80592823 1.0257219e-38
0.57894832 0.27874133 0.80294436 1.0257219e-38
0.58454704 0.27447367 0.80585277 1.0257219e-38
0.59088218 0.27046406 0.80925018 1.0257219e-38
0.60338509 0.27305704 0.80882615 1.0257219e-38
0.56920022 0.28940481 0.803128 1.0257219e-38
0.57459092 0.28479207 0.80573547 1.0257219e-38
0.58078402 0.28067827 0.80897522 1.0257219e-38
0.55961525 0.29990017 0.80062306 1.0257219e-38
0.56529945 0.29511917 0.80491626 1.0257219e-38
0.57465285 0.29473934 0.80919278 1.0257219e-38
0.58357567 0.29615259 0.80779809 1.0257219e-38
0.55630523 0.30589139 0.80459881 1.0257219e-38
0.5612784 0.30165851 0.80757612 1.0257219e-38
0.5759213 0.30360904 0.80747223 1.0257219e-38
0.58022732 0.30233485 0.80641973 1.0257219e-38
0.54704028 0.31618965 0.80492449 1.0257219e-38
0.55189955 0.31196293 0.80686074 1.0257219e-38
0.56373352 0.31543589 0.8077895 1.0257219e-38
0.54528219 0.3249965 0.80507135 1.0257219e-38
0.55371708 0.32488599 0.80898762 1.0257219e-38
0.632658 0.2378471 0.81296104 1.0257219e-38
0.61697537 0.24755014 0.81163633 1.0257219e-38
0.62218601 0.2462948 0.81395108 1.0257219e-38
0.60636085 0.25718582 0.81147879 1.0257219e-38
0.61465973 0.25419962 0.81273824 1.0257219e-38
0.62105334 0.25127357 0.81437206 1.0257219e-38
0.59672767 0.26621151 0.811786 1.0257219e-38
0.60419601 0.26377842 0.81254333 1.0257219e-38
0.61022174 0.26105535 0.81426263 1.0257219e-38
0.58741724 0.27691916 0.81216908 1.0257219e-38
0.59243006 0.27394265 0.81339163 1.0257219e-38
0.57724702 0.28765821 0.81217235 1.0257219e-38
0.58383143 0.28319949 0.8134616 1.0257219e-38
0.59072757 0.28139871 0.81525332 1.0257219e-38
0.56723464 0.29689997 0.8116346 1.0257219e-38
0.57281572 0.29305458 0.81220835 1.0257219e-38
0.55832112 0.30813828 0.81202132 1.0257219e-38
0.56336421 0.30330381 0.81239527 1.0257219e-38
0.57200766 0.30140844 0.81063962 1.0257219e-38
0.54840589 0.31848398 0.81151694 1.0257219e-38
0.55375797 0.31465879 0.81203699 1.0257219e-38
0.54823041 0.32265946 0.81093061 1.0257219e-38
0.55187386 0.32318053 0.81122404 1.0257219e-38
0.58302528 -0.070225023 0.62533796 1.3727183e-38
0.5783757 -0.062935486 0.62529904 1.3727183e-38
0.58127958 -0.067445204 0.62527835 1.3727183e-38
0.57350236 -0.055245683 0.62561524 1.3727183e-38
0.56772912 -0.044578228 0.62574083 1.3727183e-38
0.57032621 -0.049324602 0.62297529 1.3727183e-38
0.56237453 -0.034595922 0.62551939 1.3727183e-38
0.55704975 -0.024534866 0.62533826 1.3727183e-38
0.54933172 -0.010940167 0.62560302 1.3727183e-38
0.55222285 -0.015834287 0.62459856 1.3727183e-38
0.54562575 -0.0042846003 0.62527239 1.3727183e-38
0.53893054 0.0081117488 0.62506384 1.3727183e-38
0.54155028 0.0031763376 0.62549824 1.3727183e-38
0.53463596 0.015356707 0.62553036 1.3727183e-38
0.52832693 0.026722236 0.62554365 1.3727183e-38
0.53084892 0.022271091 0.62464851 1.3727183e-38
0.52583015 0.034528937 0.624717 1.3727183e-38
0.49704266 0.04948445 0.62165105 1.3727183e-38
0.52422655 0.044931393 0.62509739 1.3727183e-38
0.52925903 0.050335407 0.62651247 1.3727183e-38
0.53493881 0.054151896 0.62571192 1.3727183e-38
0.54243284 0.058850419 0.62563223 1.3727183e-38
0.54686368 0.061601967 0.62602824 1.3727183e-38
0.5540359 0.06630788 0.62736475 1.3727183e-38
0.56533509 0.072277494 0.62701517 1.3727183e-38
0.57813025 -0.06323038 0.63516486 1.3727183e-38
0.58117568 -0.068462931 0.63524467 1.3727183e-38
0.57324642 -0.054499611 0.63524127 1.3727183e-38
0.56759113 -0.044006057 0.63482553 1.3727183e-38
0.57013112 -0.048572853 0.63702756 1.3727183e-38
0.56252116 -0.034556128 0.63443553 1.3727183e-38
0.55727637 -0.024642127 0.63483691 1.3727183e-38
0.56005049 -0.029832594 0.63834822 1.3727183e-38
0.5499537 -0.011556389 0.63442945 1.3727183e-38
0.55254656 -0.016083883 0.63480157 1.3727183e-38
0.54654795 -0.0055177677 0.63478613 1.3727183e-38
0.53896624 0.0083956979 0.63489509 1.3727183e-38
0.54188317 0.0030738323 0.63493842 1.3727183e-38
0.53480381 0.01563628 0.63486648 1.3727183e-38
0.52854246 0.027199201 0.63433534 1.3727183e-38
0.53104109 0.022657203 0.63542897 1.3727183e-38
0.52511454 0.034724418 0.63519269 1.3727183e-38
0.52309024 0.044065148 0.63509148 1.3727183e-38
0.52937746 0.050160561 0.63469529 1.3727183e-38
0.53576005 0.054581743 0.63498539 1.3727183e-38
0.54190868 0.05858149 0.63470644 1.3727183e-38
0.5459798 0.061029673 0.63487625 1.3727183e-38
0.55491644 0.066379778 0.63443476 1.3727183e-38
0.56421024 0.07163991 0.63543284 1.3727183e-38
0.5871706 -0.073055558 0.64864016 1.3727183e-38
0.57863486 -0.062907167 0.64458078 1.3727183e-38
0.58215141 -0.067303345 0.64654726 1.3727183e-38
0.57406682 -0.05536725 0.64549559 1.3727183e-38
0.56796426 -0.044512682 0.64534366 1.3727183e-38
0.57062149 -0.04937166 0.64586461 1.3727183e-38
0.56301755 -0.035436425 0.64519846 1.3727183e-38
0.55738705 -0.025253801 0.64526057 1.3727183e-38
0.54958069 -0.011290044 0.64450479 1.3727183e-38
0.5523802 -0.016244885 0.644732 1.3727183e-38
0.56683385 -0.017151751 0.64083576 1.3727183e-38
0.54593235 -0.0054289466 0.64503753 1.3727183e-38
0.53866649 0.0083221355 0.64474779 1.3727183e-38
0.54183513 0.002530196 0.64516336 1.3727183e-38
0.5346297 0.015582028 0.64500338 1.3727183e-38
0.52855426 0.027001876 0.64548069 1.3727183e-38
0.53106993 0.022199756 0.64495188 1.3727183e-38
0.52459037 0.034853276 0.64540732 1.3727183e-38
0.52468479 0.04531182 0.64542347 1.3727183e-38
0.53094721 0.049919043 0.64750773 1.3727183e-38
0.52850121 0.0500229 0.6400972 1.3727183e-38
0.53521341 0.05388771 0.64584345 1.3727183e-38
0.54249126 0.058842137 0.64528328 1.3727183e-38
0.54694968 0.061389022 0.64406717 1.3727183e-38
0.55495119 0.065726928 0.64456469 1.3727183e-38
0.56235051 0.068709634 0.64609438 1.3727183e-38
0.56701839 0.071108021 0.64390337 1.3727183e-38
0.57206178 0.072360411 0.64666069 1.3727183e-38
0.5679186 0.082329191 0.64950061 1.3727183e-38
0.5884037 -0.070459642 0.65228653 1.3727183e-38
0.57955766 -0.061327152 0.6556083 1.3727183e-38
0.58382469 -0.065612592 0.6535967 1.3727183e-38
0.57434469 -0.055120215 0.65524274 1.3727183e-38
0.56811005 -0.044265747 0.65452498 1.3727183e-38
0.57064968 -0.049283493 0.65519089 1.3727183e-38
0.56295311 -0.035022877 0.65467125 1.3727183e-38
0.5568279 -0.024910409 0.65523231 1.3727183e-38
0.5494104 -0.011810809 0.65549463 1.3727183e-38
0.55211359 -0.016588474 0.65476936 1.3727183e-38
0.54581517 -0.0053032418 0.65505147 1.3727183e-38
0.53883094 0.0074350648 0.65529871 1.3727183e-38
0.54141057 0.002735164 0.65482414 1.3727183e-38
0.53470588 0.014896414 0.6550653 1.3727183e-38
0.52801633 0.026858568 0.65493107 1.3727183e-38
0.5306474 0.022112997 0.65524262 1.3727183e-38
0.52380401 0.034569126 0.65522343 1.3727183e-38
0.52457213 0.043883357 0.65515631 1.3727183e-38
0.53137106 0.049766455 0.65499312 1.3727183e-38
0.53619558 0.053865824 0.65495062 1.3727183e-38
0.54251581 0.058943991 0.65518302 1.3727183e-38
0.54796797 0.062023234 0.65612173 1.3727183e-38
0.55363429 0.065292217 0.6539582 1.3727183e-38
0.56538528 0.068635374 0.65145302 1.3727183e-38
0.56979525 0.070462056 0.65098417 1.3727183e-38
0.57420725 0.072300248 0.65055436 1.3727183e-38
0.58779776 -0.071286976 0.66360343 1.3727183e-38
0.59088826 -0.071514755 0.6636703 1.3727183e-38
0.5777241 -0.063077651 0.66740215 1.3727183e-38
0.58169562 -0.068323389 0.66820723 1.3727183e-38
0.57285976 -0.054187901 0.6656549 1.3727183e-38
0.5675714 -0.044428043 0.6652537 1.3727183e-38
0.57019168 -0.048939303 0.66107881 1.3727183e-38
0.55942434 -0.030447692 0.66511041 1.3727183e-38
0.5624364 -0.035280298 0.66480058 1.3727183e-38
0.556467 -0.024697555 0.6650458 1.3727183e-38
0.53786021 -0.010109816 0.66471827 1.3727183e-38
0.54895371 -0.011488846 0.66516495 1.3727183e-38
0.5517416 -0.016324595 0.66483545 1.3727183e-38
0.545681 -0.0053041382 0.66510755 1.3727183e-38
0.53901082 0.0069499952 0.66521955 1.3727183e-38
0.54164368 0.0021457651 0.66470808 1.3727183e-38
0.53463066 0.014701656 0.66502678 1.3727183e-38
0.52805495 0.02629168 0.66510546 1.3727183e-38
0.5307191 0.021528205 0.66441149 1.3727183e-38
0.5240072 0.035546754 0.66577172 1.3727183e-38
0.52367866 0.043895423 0.66530138 1.3727183e-38
0.53053701 0.049577169 0.66281873 1.3727183e-38
0.53598207 0.05427321 0.66375053 1.3727183e-38
0.54179549 0.058699768 0.66450357 1.3727183e-38
0.53873676 0.062677376 0.66264969 1.3727183e-38
0.54743773 0.06189828 0.66477591 1.3727183e-38
0.55425972 0.065683089 0.66467953 1.3727183e-38
0.56200171 0.069178052 0.66297781 1.3727183e-38
0.56698519 0.071452022 0.66522533 1.3727183e-38
0.5718717 0.07342235 0.66153872 1.3727183e-38
0.58657193 -0.070997417 0.67574966 1.3727183e-38
0.57839692 -0.061622597 0.67303634 1.3727183e-38
0.5825361 -0.066570535 0.67437774 1.3727183e-38
0.57367802 -0.055051446 0.6744808 1.3727183e-38
0.55907011 -0.042918108 0.67091852 1.3727183e-38
0.56748754 -0.044814415 0.67497194 1.3727183e-38
0.57031745 -0.049795993 0.67523956 1.3727183e-38
0.55970126 -0.030993961 0.67637604 1.3727183e-38
0.5624944 -0.035931304 0.67499268 1.3727183e-38
0.55628371 -0.024841916 0.67516798 1.3727183e-38
0.57172561 -0.029350001 0.67195827 1.3727183e-38
0.54893762 -0.011750741 0.6755476 1.3727183e-38
0.5515964 -0.016480234 0.674707 1.3727183e-38
0.54513472 -0.0047540418 0.67493516 1.3727183e-38
0.53875077 0.007070397 0.6751495 1.3727183e-38
0.54125518 0.0024503558 0.6747297 1.3727183e-38
0.52904147 0.014814361 0.67055124 1.3727183e-38
0.53436428 0.015064442 0.67488569 1.3727183e-38
0.52814782 0.025507545 0.67498827 1.3727183e-38
0.53080338 0.021219809 0.67555094 1.3727183e-38
0.52520072 0.035119221 0.67430913 1.3727183e-38
0.52528769 0.04535922 0.67600697 1.3727183e-38
0.52823985 0.050783195 0.6764704 1.3727183e-38
0.53457272 0.05453141 0.67562068 1.3727183e-38
0.54259104 0.059049066 0.67517895 1.3727183e-38
0.54677731 0.061565857 0.67478591 1.3727183e-38
0.5541845 0.065922551 0.67495179 1.3727183e-38
0.56303281 0.069393136 0.67294061 1.3727183e-38
0.56803787 0.07125029 0.67168826 1.3727183e-38
0.57024831 0.071251094 0.67403966 1.3727183e-38
0.58494091 -0.071093366 0.68640393 1.3727183e-38
0.57803267 -0.062353209 0.68615544 1.3727183e-38
0.58167017 -0.067294881 0.6863538 1.3727183e-38
0.57323855 -0.055108801 0.68527609 1.3727183e-38
0.5672968 -0.044988777 0.68472028 1.3727183e-38
0.55961281 -0.031507604 0.68628889 1.3727183e-38
0.56257391 -0.036477074 0.68499881 1.3727183e-38
0.55638707 -0.025606079 0.68479186 1.3727183e-38
0.54866648 -0.011804868 0.68513972 1.3727183e-38
0.55184048 -0.017466415 0.68517536 1.3727183e-38
0.54463726 -0.0045413943 0.685036 1.3727183e-38
0.53844804 0.0071900473 0.68498117 1.3727183e-38
0.54091161 0.0024734745 0.68511868 1.3727183e-38
0.53428125 0.015005266 0.68500853 1.3727183e-38
0.52809626 0.025860697 0.68490124 1.3727183e-38
0.53080356 0.021226192 0.68584251 1.3727183e-38
0.52346987 0.03487042 0.6852259 1.3727183e-38
0.52703559 0.044917766 0.68412566 1.3727183e-38
0.53130686 0.048805133 0.68132865 1.3727183e-38
0.53575134 0.053911321 0.68401825 1.3727183e-38
0.54224175 0.058725316 0.68591201 1.3727183e-38
0.54644811 0.061223105 0.68548805 1.3727183e-38
0.55410129 0.065793999 0.68544775 1.3727183e-38
0.56297505 0.070943862 0.68836254 1.3727183e-38
0.58754593 -0.071114033 0.69456756 1.3727183e-38
0.5911575 -0.070672669 0.6989761 1.3727183e-38
0.5787127 -0.061414279 0.6942336 1.3727183e-38
0.58379197 -0.066454887 0.69542015 1.3727183e-38
0.57342553 -0.054300413 0.69553387 1.3727183e-38
0.61365861 -0.058446653 0.69888228 1.3727183e-38
0.56749386 -0.044358302 0.69518459 1.3727183e-38
0.57039928 -0.048480481 0.69916284 1.3727183e-38
0.55943227 -0.031226959 0.69283128 1.3727183e-38
0.56252414 -0.035153124 0.69627255 1.3727183e-38
0.55659759 -0.024908187 0.69546938 1.3727183e-38
0.56028628 -0.029033229 0.69925481 1.3727183e-38
0.54893899 -0.012384145 0.69301265 1.3727183e-38
0.55223006 -0.01623784 0.69634593 1.3727183e-38
0.60399294 -0.013856392 0.69425333 1.3727183e-38
0.62551451 -0.016945284 0.69913125 1.3727183e-38
0.54589802 -0.0049377908 0.6957714 1.3727183e-38
0.5501709 -0.0099061839 0.69956678 1.3727183e-38
0.53894526 0.0077147465 0.69426471 1.3727183e-38
0.54177451 0.0035762279 0.69645774 1.3727183e-38
0.53543824 0.015096031 0.69556147 1.3727183e-38
0.55110425 0.013712708 0.69502509 1.3727183e-38
0.52872872 0.026942981 0.69397992 1.3727183e-38
0.53146076 0.022970499 0.69652218 1.3727183e-38
0.52550232 0.035031714 0.6951226 1.3727183e-38
0.52566606 0.044456519 0.69492537 1.3727183e-38
0.5306794 0.048830092 0.69739205 1.3727183e-38
0.5353595 0.053343326 0.69547331 1.3727183e-38
0.54289907 0.057644825 0.69716972 1.3727183e-38
0.57418525 0.050680675 0.6940971 1.3727183e-38
0.54732859 0.060787886 0.69545972 1.3727183e-38
0.55528545 0.06516014 0.69469863 1.3727183e-38
0.56509632 0.068098582 0.69617337 1.3727183e-38
0.57382494 0.06882906 0.69994229 1.3727183e-38
0.56690419 0.071062401 0.69225299 1.3727183e-38
0.57305378 0.070856296 0.6959089 1.3727183e-38
0.57942241 -0.060094573 0.70059353 1.3727183e-38
0.58567393 -0.062873356 0.70373076 1.3727183e-38
0.59341973 -0.064344101 0.70475978 1.3727183e-38
0.60023391 -0.061199546 0.70563358 1.3727183e-38
0.57675844 -0.053713311 0.70236427 1.3727183e-38
0.58449227 -0.054538693 0.70563632 1.3727183e-38
0.59496987 -0.055134784 0.70683235 1.3727183e-38
0.60453558 -0.05411214 0.70641756 1.3727183e-38
0.61509687 -0.052498624 0.70420891 1.3727183e-38
0.62254429 -0.052281845 0.70121264 1.3727183e-38
0.56886899 -0.04196978 0.70103884 1.3727183e-38
0.57442063 -0.044654466 0.70310766 1.3727183e-38
0.58490294 -0.045143165 0.70497692 1.3727183e-38
0.59592611 -0.045142978 0.70572162 1.3727183e-38
0.6048122 -0.044675499 0.7063629 1.3727183e-38
0.61445916 -0.044831298 0.70642704 1.3727183e-38
0.62478608 -0.045047142 0.70499915 1.3727183e-38
0.63144928 -0.042426009 0.704063 1.3727183e-38
0.56649643 -0.03427605 0.70214587 1.3727183e-38
0.57514232 -0.035007205 0.70452559 1.3727183e-38
0.58501905 -0.035222657 0.70525682 1.3727183e-38
0.59475046 -0.035092384 0.70560539 1.3727183e-38
0.60504347 -0.034589481 0.70600182 1.3727183e-38
0.61461031 -0.035179306 0.70642465 1.3727183e-38
0.6241284 -0.035339177 0.70710433 1.3727183e-38
0.63213593 -0.037700616 0.70535642 1.3727183e-38
0.55857813 -0.022613192 0.70138758 1.3727183e-38
0.56498951 -0.025235105 0.70364821 1.3727183e-38
0.57514769 -0.025412906 0.70567054 1.3727183e-38
0.5853371 -0.024929136 0.70572054 1.3727183e-38
0.59490293 -0.024643065 0.70568109 1.3727183e-38
0.60447031 -0.024872856 0.70591664 1.3727183e-38
0.61411482 -0.025629729 0.70698065 1.3727183e-38
0.62368095 -0.026200334 0.7046631 1.3727183e-38
0.55629468 -0.014878833 0.70272791 1.3727183e-38
0.56459212 -0.015096821 0.70570666 1.3727183e-38
0.57448411 -0.014997502 0.70640135 1.3727183e-38
0.58507496 -0.014677839 0.70617527 1.3727183e-38
0.59561622 -0.0150034 0.70608115 1.3727183e-38
0.60582572 -0.015301915 0.70657891 1.3727183e-38
0.61451161 -0.015566293 0.70653319 1.3727183e-38
0.62217343 -0.019203393 0.70285726 1.3727183e-38
0.54867834 -0.003191988 0.70123905 1.3727183e-38
0.55427605 -0.0053909561 0.70461476 1.3727183e-38
0.5643332 -0.0046308935 0.70660764 1.3727183e-38
0.57452869 -0.0048639169 0.70649248 1.3727183e-38
0.58492726 -0.0051024132 0.70634896 1.3727183e-38
0.59537083 -0.0053384248 0.70636576 1.3727183e-38
0.60482758 -0.0057070134 0.70673782 1.3727183e-38
0.61248606 -0.0058546891 0.70584065 1.3727183e-38
0.54619622 0.0054464927 0.70306873 1.3727183e-38
0.55451316 0.0047822031 0.70623159 1.3727183e-38
0.56446135 0.0047646817 0.70645034 1.3727183e-38
0.57457632 0.0046159164 0.70643556 1.3727183e-38
0.58491176 0.0044636149 0.70636725 1.3727183e-38
0.59543693 0.0051127556 0.70628947 1.3727183e-38
0.60444045 0.0043512466 0.70624304 1.3727183e-38
0.6115458 0.0032194117 0.70374858 1.3727183e-38
0.53808802 0.017001169 0.70203048 1.3727183e-38
0.54468185 0.014754369 0.70451647 1.3727183e-38
0.55493218 0.014902 0.70587325 1.3727183e-38
0.56475317 0.014945667 0.70609218 1.3727183e-38
0.5746811 0.014887258 0.70630878 1.3727183e-38
0.58485347 0.014826575 0.70643622 1.3727183e-38
0.5952934 0.015428206 0.70628721 1.3727183e-38
0.60329968 0.014441118 0.70455915 1.3727183e-38
0.52999073 0.028876018 0.70080161 1.3727183e-38
0.53532052 0.025305279 0.70263445 1.3727183e-38
0.54504859 0.025086243 0.70485532 1.3727183e-38
0.55518752 0.02511131 0.70562816 1.3727183e-38
0.56494409 0.025136739 0.70585805 1.3727183e-38
0.57468867 0.02516138 0.70629942 1.3727183e-38
0.58472675 0.025187219 0.70658588 1.3727183e-38
0.59368187 0.024497474 0.7061491 1.3727183e-38
0.52807361 0.036137223 0.70195031 1.3727183e-38
0.53468311 0.034932245 0.70406848 1.3727183e-38
0.5451709 0.034999903 0.70500886 1.3727183e-38
0.55530828 0.035225287 0.70547724 1.3727183e-38
0.56493682 0.034724042 0.70570862 1.3727183e-38
0.57482231 0.034648966 0.70613891 1.3727183e-38
0.58456433 0.03450916 0.70602185 1.3727183e-38
0.59209883 0.034051064 0.70403939 1.3727183e-38
0.52759153 0.042783879 0.70201552 1.3727183e-38
0.5344407 0.045196448 0.70377958 1.3727183e-38
0.54507232 0.045146432 0.70482647 1.3727183e-38
0.55513537 0.045330811 0.70569253 1.3727183e-38
0.56493914 0.044874132 0.70600861 1.3727183e-38
0.57495892 0.04464196 0.70551485 1.3727183e-38
0.58359468 0.04488657 0.70436525 1.3727183e-38
0.59059346 0.041285243 0.70211345 1.3727183e-38
0.5373112 0.051511418 0.70142478 1.3727183e-38
0.54541737 0.053837951 0.70299232 1.3727183e-38
0.55471611 0.055007692 0.70532674 1.3727183e-38
0.56461662 0.055038717 0.70710444 1.3727183e-38
0.57505965 0.054672882 0.7060504 1.3727183e-38
0.58360118 0.054472286 0.70258975 1.3727183e-38
0.59284019 0.053627778 0.70150214 1.3727183e-38
0.54956049 0.060088314 0.70034283 1.3727183e-38
0.55585206 0.061772406 0.70306695 1.3727183e-38
0.56476438 0.063264333 0.7051906 1.3727183e-38
0.57350719 0.064072505 0.70485324 1.3727183e-38
0.61186945 -0.0075435136 0.71245033 1.3727183e-38
0.53984243 0.04802588 0.71182257 1.3727183e-38
0.54887044 0.060779758 0.7127831 1.3727183e-38
0.44764271 0.20788774 0.62646294 2.350509e-38
0.45307186 0.20469035 0.62781471 2.350509e-38
0.44471809 0.2151701 0.62638682 2.350509e-38
0.43695211 0.22583821 0.62665904 2.350509e-38
0.44081834 0.22057486 0.62566918 2.350509e-38
0.4291116 0.23862833 0.62818706 2.350509e-38
0.43201628 0.2336036 0.62682414 2.350509e-38
0.42838195 0.24194963 0.62951171 2.350509e-38
0.459088 0.19963458 0.63776922 2.350509e-38
0.44870961 0.20832823 0.63561285 2.350509e-38
0.45398459 0.2032629 0.63494867 2.350509e-38
0.44443178 0.21499059 0.6349799 2.350509e-38
0.43695906 0.22568367 0.63492405 2.350509e-38
0.44067517 0.22062334 0.6350711 2.350509e-38
0.42942533 0.23791172 0.63451451 2.350509e-38
0.43175736 0.23324329 0.63517922 2.350509e-38
0.42803398 0.24394746 0.6358 2.350509e-38
0.43109107 0.25204465 0.63766062 2.350509e-38
0.46232018 0.19907926 0.64504927 2.350509e-38
0.43553248 0.20862721 0.64110512 2.350509e-38
0.44904214 0.20835821 0.64479905 2.350509e-38
0.45463559 0.20353585 0.64419258 2.350509e-38
0.46108323 0.20029619 0.64569575 2.350509e-38
0.44468811 0.21498235 0.64510208 2.350509e-38
0.43696213 0.2259647 0.6452195 2.350509e-38
0.44057655 0.22094816 0.64566773 2.350509e-38
0.429023 0.23802504 0.64539653 2.350509e-38
0.43192226 0.23303306 0.64481956 2.350509e-38
0.42843994 0.24510591 0.64421713 2.350509e-38
0.42979166 0.2512306 0.6442585 2.350509e-38
0.43372285 0.2550692 0.64454931 2.350509e-38
0.45807725 0.19951406 0.65588075 2.350509e-38
0.46512055 0.19952478 0.6539979 2.350509e-38
0.44912955 0.20884246 0.65509915 2.350509e-38
0.45299071 0.20382629 0.65602154 2.350509e-38
0.44490838 0.21523656 0.65492892 2.350509e-38
0.43707678 0.22615719 0.65500015 2.350509e-38
0.44070601 0.22120054 0.65536606 2.350509e-38
0.4294675 0.23876998 0.65189159 2.350509e-38
0.43178353 0.23459619 0.65504849 2.350509e-38
0.42850369 0.24475181 0.65459126 2.350509e-38
0.4303304 0.24062362 0.65457976 2.350509e-38
0.42852449 0.25034171 0.65494716 2.350509e-38
0.43226168 0.25341487 0.65599489 2.350509e-38
0.45923606 0.19954619 0.66490066 2.350509e-38
0.46405184 0.19855368 0.66721952 2.350509e-38
0.44832787 0.20863765 0.66474032 2.350509e-38
0.45386249 0.20379251 0.66514289 2.350509e-38
0.43424761 0.21799248 0.66759741 2.350509e-38
0.44486004 0.21510071 0.66498363 2.350509e-38
0.43712276 0.22600625 0.66526163 2.350509e-38
0.44077864 0.22103655 0.66564864 2.350509e-38
0.42937699 0.23855868 0.66571409 2.350509e-38
0.43175441 0.23357223 0.66533703 2.350509e-38
0.42881393 0.24470969 0.66570348 2.350509e-38
0.43044448 0.24869318 0.66544741 2.350509e-38
0.43306494 0.25390521 0.66443831 2.350509e-38
0.44175678 0.26070571 0.66809481 2.350509e-38
0.45926043 0.19977163 0.67717415 2.350509e-38
0.46121451 0.19888632 0.67540532 2.350509e-38
0.44927907 0.20872201 0.67455155 2.350509e-38
0.45370632 0.20384613 0.67521942 2.350509e-38
0.44511059 0.21503776 0.67478436 2.350509e-38
0.43710929 0.22637568 0.67516172 2.350509e-38
0.44092053 0.22111782 0.67487037 2.350509e-38
0.42970452 0.23864532 0.6721639 2.350509e-38
0.43175259 0.23454073 0.67520291 2.350509e-38
0.42951205 0.24478309 0.67429185 2.350509e-38
0.43019971 0.24216418 0.67672187 2.350509e-38
0.42961308 0.25030279 0.67636448 2.350509e-38
0.43303031 0.25419194 0.67462671 2.350509e-38
0.43434122 0.26038751 0.67198688 2.350509e-38
0.46320203 0.19895788 0.68414897 2.350509e-38
0.44933885 0.20885265 0.68541819 2.350509e-38
0.45467627 0.2037593 0.68491465 2.350509e-38
0.46069026 0.20043062 0.6871829 2.350509e-38
0.44523218 0.21483646 0.68504757 2.350509e-38
0.42787287 0.22849889 0.68060118 2.350509e-38
0.43729696 0.22602125 0.68522465 2.350509e-38
0.44075674 0.22110936 0.68501455 2.350509e-38
0.4296267 0.23952121 0.68435681 2.350509e-38
0.43222347 0.2343028 0.68498713 2.350509e-38
0.42859608 0.24394585 0.68501556 2.350509e-38
0.43057275 0.24906242 0.68542188 2.350509e-38
0.43345919 0.25348511 0.68458623 2.350509e-38
0.46335301 0.19936709 0.69478881 2.350509e-38
0.44929418 0.20916097 0.69423145 2.350509e-38
0.45398757 0.20474306 0.69553101 2.350509e-38
0.46165231 0.20036814 0.69495195 2.350509e-38
0.44536728 0.21505328 0.69529182 2.350509e-38
0.4375537 0.22627008 0.69511992 2.350509e-38
0.44092989 0.2213417 0.69544846 2.350509e-38
0.42972681 0.23778157 0.69492829 2.350509e-38
0.43244478 0.23380372 0.69561166 2.350509e-38
0.42910841 0.24331667 0.69465286 2.350509e-38
0.43087879 0.24855681 0.69633847 2.350509e-38
0.43483311 0.25428131 0.69561774 2.350509e-38
0.4457202 0.26090991 0.69687968 2.350509e-38
0.47613031 0.1967199 0.70080459 2.350509e-38
0.45518303 0.20597768 0.70524436 2.350509e-38
0.46497777 0.20385152 0.70607013 2.350509e-38
0.4728215 0.20743752 0.70705336 2.350509e-38
0.44712904 0.21595407 0.70490623 2.350509e-38
0.45181313 0.21263115 0.70852482 2.350509e-38
0.4758864 0.21280181 0.70816422 2.350509e-38
0.43829724 0.22750497 0.70395726 2.350509e-38
0.44277492 0.22395505 0.70644659 2.350509e-38
0.47506791 0.22563644 0.70935893 2.350509e-38
0.43444717 0.23517732 0.70566761 2.350509e-38
0.44028085 0.23092538 0.70973104 2.350509e-38
0.47171304 0.23478615 0.70708847 2.350509e-38
0.42982709 0.24231109 0.70102441 2.350509e-38
0.43274722 0.245195 0.70614326 2.350509e-38
0.4676775 0.24099837 0.70804834 2.350509e-38
0.43636894 0.25311604 0.70507485 2.350509e-38
0.4433482 0.25662202 0.70727038 2.350509e-38
0.45730495 0.2563625 0.70606136 2.350509e-38
0.44933745 0.26141983 0.70058954 2.350509e-38
0.45805395 0.20874375 0.71057403 2.350509e-38
0.46423396 0.20891866 0.71136039 2.350509e-38
0.44951487 0.21854137 0.71044451 2.350509e-38
0.45567653 0.21532741 0.71214086 2.350509e-38
0.46471369 0.21515685 0.7133466 2.350509e-38
0.47278836 0.21617256 0.7119987 2.350509e-38
0.44690481 0.22629793 0.71148574 2.350509e-38
0.45488805 0.22473831 0.71394795 2.350509e-38
0.46489128 0.22467145 0.71390271 2.350509e-38
0.47208527 0.22398111 0.71153402 2.350509e-38
0.43834132 0.23690762 0.71094364 2.350509e-38
0.44477734 0.23494264 0.71297342 2.350509e-38
0.45440614 0.23501734 0.71423084 2.350509e-38
0.4639369 0.23437297 0.71251851 2.350509e-38
0.43774018 0.24460547 0.71176255 2.350509e-38
0.44477534 0.24491554 0.7138176 2.350509e-38
0.45431602 0.24455734 0.71379721 2.350509e-38
0.46245915 0.24321516 0.71118128 2.350509e-38
0.43971196 0.25088274 0.71062768 2.350509e-38
0.44549164 0.25274858 0.71197253 2.350509e-38
0.45401525 0.25211152 0.71158057 2.350509e-38
0.46163589 0.20340525 0.72166002 2.350509e-38
0.64447832 0.10902096 0.62668604 1.0228386e-39
0.6353547 0.11601885 0.6255762 1.0228386e-39
0.6421482 0.11249318 0.62596303 1.0228386e-39
0.62705135 0.12611338 0.62611246 1.0228386e-39
0.63078356 0.12121604 0.62513512 1.0228386e-39
0.62220937 0.13529414 0.62586683 1.0228386e-39
0.61988395 0.14642294 0.62622786 1.0228386e-39
0.62033373 0.14510256 0.62729001 1.0228386e-39
0.62065214 0.15208989 0.62847626 1.0228386e-39
0.64595258 0.10833027 0.63510847 1.0228386e-39
0.65347153 0.10365013 0.63597918 1.0228386e-39
0.63543499 0.11561588 0.63507187 1.0228386e-39
0.64167023 0.11078069 0.63521081 1.0228386e-39
0.62742895 0.12588507 0.63485354 1.0228386e-39
0.63078141 0.12106162 0.63560963 1.0228386e-39
0.62293893 0.13448508 0.63507956 1.0228386e-39
0.61961907 0.14576009 0.63340098 1.0228386e-39
0.62062937 0.14390264 0.63592702 1.0228386e-39
0.61987913 0.15088344 0.63443959 1.0228386e-39
0.62433213 0.15315072 0.63554436 1.0228386e-39
0.64749211 0.10802689 0.64496559 1.0228386e-39
0.63560003 0.11589146 0.64478981 1.0228386e-39
0.64178115 0.11070251 0.64584213 1.0228386e-39
0.62738603 0.12618971 0.64494008 1.0228386e-39
0.63109463 0.12105619 0.6442157 1.0228386e-39
0.6228506 0.13515629 0.64484042 1.0228386e-39
0.62083483 0.1453688 0.64464152 1.0228386e-39
0.62038141 0.15138121 0.64506495 1.0228386e-39
0.64566177 0.1090331 0.65504217 1.0228386e-39
0.65104628 0.10675741 0.65370739 1.0228386e-39
0.63576812 0.11588027 0.65496248 1.0228386e-39
0.64144152 0.11122613 0.65551531 1.0228386e-39
0.62694788 0.12577744 0.65500355 1.0228386e-39
0.63060713 0.12082981 0.65498537 1.0228386e-39
0.62237257 0.13470656 0.65507323 1.0228386e-39
0.61980355 0.14723375 0.65541828 1.0228386e-39
0.62030399 0.14242798 0.65544772 1.0228386e-39
0.61971766 0.15057334 0.65605271 1.0228386e-39
0.62351793 0.15522531 0.65547156 1.0228386e-39
0.6472795 0.10830564 0.66540241 1.0228386e-39
0.65367883 0.10056513 0.66174519 1.0228386e-39
0.63502318 0.11624669 0.66525519 1.0228386e-39
0.64138788 0.11157979 0.66529238 1.0228386e-39
0.61628586 0.12837237 0.665362 1.0228386e-39
0.62666667 0.12556498 0.66518724 1.0228386e-39
0.63080972 0.12030105 0.66261727 1.0228386e-39
0.64054626 0.12169217 0.66345036 1.0228386e-39
0.62196976 0.13535087 0.66502237 1.0228386e-39
0.61978638 0.14764959 0.66383183 1.0228386e-39
0.62019813 0.14416371 0.66724223 1.0228386e-39
0.61953616 0.1512266 0.66334319 1.0228386e-39
0.62252778 0.15442331 0.66547352 1.0228386e-39
0.64498395 0.10900898 0.67613679 1.0228386e-39
0.6503731 0.1072951 0.67269206 1.0228386e-39
0.62305409 0.11434013 0.6760174 1.0228386e-39
0.63469338 0.11622158 0.67518342 1.0228386e-39
0.64163119 0.11086112 0.67477769 1.0228386e-39
0.6265406 0.12578429 0.67473382 1.0228386e-39
0.63016999 0.12097032 0.67626888 1.0228386e-39
0.62196946 0.13471712 0.67505288 1.0228386e-39
0.61937982 0.14508875 0.67849022 1.0228386e-39
0.62041914 0.14414501 0.67417103 1.0228386e-39
0.61983395 0.15020928 0.67796308 1.0228386e-39
0.62257165 0.15423338 0.67510635 1.0228386e-39
0.64627349 0.10883006 0.68486625 1.0228386e-39
0.63560313 0.11576667 0.68501759 1.0228386e-39
0.64137769 0.11101935 0.68523043 1.0228386e-39
0.62707156 0.12557599 0.68477285 1.0228386e-39
0.63066447 0.1206847 0.68535566 1.0228386e-39
0.62210709 0.13506 0.68483537 1.0228386e-39
0.61953974 0.14578255 0.68410575 1.0228386e-39
0.62036598 0.14227751 0.6884917 1.0228386e-39
0.6195789 0.15109928 0.68586606 1.0228386e-39
0.62387371 0.15520848 0.68522727 1.0228386e-39
0.63055992 0.15945351 0.68092376 1.0228386e-39
0.64745039 0.10866297 0.6944986 1.0228386e-39
0.63558215 0.1161941 0.69488317 1.0228386e-39
0.64247334 0.11107107 0.69529462 1.0228386e-39
0.62714148 0.1260439 0.69482893 1.0228386e-39
0.630795 0.12108747 0.69373494 1.0228386e-39
0.6225881 0.13457683 0.69506299 1.0228386e-39
0.61972958 0.14775774 0.69496208 1.0228386e-39
0.62040681 0.14306228 0.69576824 1.0228386e-39
0.61956745 0.15084863 0.69278032 1.0228386e-39
0.62360847 0.15538064 0.6963163 1.0228386e-39
0.63045156 0.15957396 0.69611299 1.0228386e-39
0.64901823 0.10886596 0.70059913 1.0228386e-39
0.6500504 0.10884988 0.70195878 1.0228386e-39
0.63623202 0.11676943 0.70456207 1.0228386e-39
0.64442778 0.11206763 0.70540249 1.0228386e-39
0.6542027 0.11249448 0.70655006 1.0228386e-39
0.62771273 0.12663981 0.70501173 1.0228386e-39
0.63125962 0.1216589 0.70530456 1.0228386e-39
0.62344038 0.13530429 0.70512533 1.0228386e-39
0.62197357 0.14568992 0.70530689 1.0228386e-39
0.61573368 0.15711823 0.70112133 1.0228386e-39
0.62455183 0.15343022 0.70501626 1.0228386e-39
0.63190776 0.15587971 0.70682293 1.0228386e-39
0.63803989 0.11804218 0.71236324 1.0228386e-39
0.64450002 0.11659317 0.71369147 1.0228386e-39
0.65216488 0.11644036 0.71145391 1.0228386e-39
0.62863022 0.12806903 0.71411461 1.0228386e-39
0.63378882 0.12254024 0.71525007 1.0228386e-39
0.64275348 0.12047485 0.71941602 1.0228386e-39
0.65165508 0.1206761 0.71489131 1.0228386e-39
0.62688911 0.13514169 0.71471816 1.0228386e-39
0.62665743 0.14430793 0.71349031 1.0228386e-39
0.63340348 0.14724046 0.71612918 1.0228386e-39
0.62705988 0.15378587 0.71160817 1.0228386e-39
0.63379705 0.15181637 0.71256715 1.0228386e-39
0.62955642 0.1290887 0.72145402 1.0228386e-39
0.63400191 0.1256157 0.72495693 1.0228386e-39
