# .PCD v0.7 - Point Cloud Data file format
VERSION 0.7
FIELDS x y z rgb
SIZE 4 4 4 4
TYPE F F F F
COUNT 1 1 1 1
WIDTH 1009
HEIGHT 1
VIEWPOINT 0 0 0 1 0 0 0
POINTS 1009
DATA ascii
0.56539935 -0.1946857 0.62471777 1.8855998e-39
0.56795722 -0.18512945 0.62519908 1.8855998e-39
0.56974912 -0.17960131 0.62653744 1.8855998e-39
0.57164884 -0.17436165 0.62484086 1.8855998e-39
0.59785128 -0.17079656 0.62388134 1.8855998e-39
0.60251433 -0.1723661 0.62186539 1.8855998e-39
0.57509077 -0.16685033 0.62468618 1.8855998e-39
0.58553034 -0.16666129 0.62201518 1.8855998e-39
0.59365064 -0.16884865 0.62282169 1.8855998e-39
0.54663664 -0.33097741 0.63814551 1.8855998e-39
0.55027813 -0.33513272 0.63673139 1.8855998e-39
0.54487145 -0.32459739 0.63721764 1.8855998e-39
0.54629147 -0.31483608 0.63510317 1.8855998e-39
0.55651283 -0.31762803 0.63113803 1.8855998e-39
0.54880702 -0.30523849 0.63460112 1.8855998e-39
0.55035651 -0.30133682 0.63799185 1.8855998e-39
0.54979348 -0.29776493 0.63190061 1.8855998e-39
0.55111098 -0.29449278 0.63547146 1.8855998e-39
0.55248892 -0.28513783 0.63498443 1.8855998e-39
0.5539372 -0.27535883 0.63485849 1.8855998e-39
0.55557078 -0.26521975 0.63516814 1.8855998e-39
0.55722326 -0.25486872 0.63509071 1.8855998e-39
0.55835986 -0.2452399 0.63507313 1.8855998e-39
0.55933142 -0.23558496 0.6342653 1.8855998e-39
0.5601002 -0.23170699 0.63896334 1.8855998e-39
0.55997485 -0.22854422 0.63159287 1.8855998e-39
0.56066614 -0.22495051 0.63504678 1.8855998e-39
0.56210661 -0.214846 0.63538194 1.8855998e-39
0.56374222 -0.20486233 0.63524187 1.8855998e-39
0.56595814 -0.19508041 0.63473666 1.8855998e-39
0.56844741 -0.18523289 0.63517326 1.8855998e-39
0.57016039 -0.18059495 0.63698691 1.8855998e-39
0.57223719 -0.17481424 0.63521135 1.8855998e-39
0.57528275 -0.16738275 0.63522875 1.8855998e-39
0.54843444 -0.33150679 0.64092952 1.8855998e-39
0.55017543 -0.33521134 0.64233619 1.8855998e-39
0.54615766 -0.3236998 0.64461952 1.8855998e-39
0.54739988 -0.31501064 0.64500642 1.8855998e-39
0.54936177 -0.307365 0.64366299 1.8855998e-39
0.55097979 -0.30359444 0.64634854 1.8855998e-39
0.55259746 -0.29536092 0.64506453 1.8855998e-39
0.55397111 -0.2849417 0.64486313 1.8855998e-39
0.55526894 -0.27504751 0.64490026 1.8855998e-39
0.55687481 -0.26512226 0.64532357 1.8855998e-39
0.55845886 -0.25509036 0.6452812 1.8855998e-39
0.56844318 -0.25134891 0.64999819 1.8855998e-39
0.55946714 -0.24597514 0.64378709 1.8855998e-39
0.5604251 -0.24214713 0.64763075 1.8855998e-39
0.55976039 -0.23851554 0.6411947 1.8855998e-39
0.56109959 -0.23467994 0.64555913 1.8855998e-39
0.56151032 -0.22469957 0.64497006 1.8855998e-39
0.5627144 -0.21514779 0.64535362 1.8855998e-39
0.56451875 -0.20508517 0.6450367 1.8855998e-39
0.56685865 -0.19495901 0.64442527 1.8855998e-39
0.56902707 -0.18618637 0.64483017 1.8855998e-39
0.57075471 -0.18164428 0.64583862 1.8855998e-39
0.57340693 -0.17508093 0.64502549 1.8855998e-39
0.576572 -0.16776669 0.64454949 1.8855998e-39
0.58274758 -0.1674697 0.64347625 1.8855998e-39
0.54826599 -0.33295551 0.65448666 1.8855998e-39
0.54753196 -0.32522121 0.6532045 1.8855998e-39
0.55035722 -0.32522133 0.65554947 1.8855998e-39
0.54907012 -0.31536815 0.65414381 1.8855998e-39
0.55064398 -0.31486639 0.65372282 1.8855998e-39
0.54978132 -0.30968279 0.65898561 1.8855998e-39
0.55167043 -0.30469334 0.65451413 1.8855998e-39
0.55384499 -0.29473364 0.65534073 1.8855998e-39
0.55507493 -0.28515598 0.65497422 1.8855998e-39
0.55625826 -0.27489319 0.65517879 1.8855998e-39
0.56282514 -0.27608502 0.65409124 1.8855998e-39
0.55794299 -0.26465723 0.65508419 1.8855998e-39
0.55931425 -0.25562093 0.65475309 1.8855998e-39
0.56017786 -0.25138903 0.6570195 1.8855998e-39
0.55987251 -0.24855457 0.65076095 1.8855998e-39
0.56091642 -0.24474916 0.65559191 1.8855998e-39
0.5621618 -0.23470971 0.6549536 1.8855998e-39
0.56306565 -0.22524323 0.65478331 1.8855998e-39
0.56392491 -0.21500717 0.65476662 1.8855998e-39
0.56509244 -0.2053286 0.65554589 1.8855998e-39
0.56699741 -0.19504787 0.65493953 1.8855998e-39
0.55852556 -0.18461555 0.65653515 1.8855998e-39
0.56914914 -0.18791811 0.65530866 1.8855998e-39
0.5713281 -0.18294403 0.6552844 1.8855998e-39
0.57369488 -0.1752575 0.65476894 1.8855998e-39
0.5771966 -0.16771691 0.65580112 1.8855998e-39
0.58311987 -0.16398747 0.65833724 1.8855998e-39
0.54818219 -0.33242509 0.66508728 1.8855998e-39
0.55790234 -0.33889842 0.66661179 1.8855998e-39
0.54833126 -0.32539499 0.66548592 1.8855998e-39
0.54894465 -0.31472939 0.66585976 1.8855998e-39
0.55026877 -0.31047779 0.66885728 1.8855998e-39
0.54986835 -0.30952147 0.66283226 1.8855998e-39
0.55178505 -0.30462244 0.66514564 1.8855998e-39
0.55480653 -0.29488426 0.66508871 1.8855998e-39
0.55643255 -0.28475356 0.66479886 1.8855998e-39
0.55774039 -0.27508569 0.66504109 1.8855998e-39
0.55908751 -0.26528296 0.66475636 1.8855998e-39
0.56016159 -0.26096654 0.66887587 1.8855998e-39
0.55942327 -0.25793275 0.6623348 1.8855998e-39
0.56081945 -0.25410339 0.66519606 1.8855998e-39
0.56214559 -0.24493729 0.6651606 1.8855998e-39
0.56342036 -0.23529167 0.66505533 1.8855998e-39
0.56477201 -0.2247356 0.6650421 1.8855998e-39
0.56545442 -0.21493727 0.6646176 1.8855998e-39
0.56652391 -0.20447689 0.66528082 1.8855998e-39
0.56817222 -0.19505034 0.66462386 1.8855998e-39
0.56969142 -0.18866667 0.66630709 1.8855998e-39
0.57110292 -0.18405004 0.66502655 1.8855998e-39
0.57432312 -0.17476079 0.66509628 1.8855998e-39
0.5781073 -0.16770686 0.6658417 1.8855998e-39
0.58347654 -0.16376504 0.66588867 1.8855998e-39
0.59345794 -0.16448462 0.66440284 1.8855998e-39
0.54869688 -0.3315888 0.675156 1.8855998e-39
0.55006599 -0.33297271 0.67948204 1.8855998e-39
0.54868019 -0.32507667 0.67503846 1.8855998e-39
0.5492174 -0.31589991 0.6746617 1.8855998e-39
0.55034679 -0.3110306 0.67468888 1.8855998e-39
0.55231088 -0.30489597 0.67502367 1.8855998e-39
0.55537838 -0.29513562 0.67510968 1.8855998e-39
0.55738378 -0.28501031 0.67499644 1.8855998e-39
0.5668571 -0.28606462 0.67966318 1.8855998e-39
0.55880028 -0.27483475 0.67513555 1.8855998e-39
0.55958086 -0.26777646 0.67300534 1.8855998e-39
0.56051254 -0.26389751 0.67605394 1.8855998e-39
0.56178558 -0.25508344 0.6748032 1.8855998e-39
0.56349128 -0.24500045 0.67501533 1.8855998e-39
0.56513768 -0.23471642 0.67489696 1.8855998e-39
0.56640851 -0.22498779 0.67483783 1.8855998e-39
0.56736708 -0.21491905 0.67536479 1.8855998e-39
0.5679931 -0.20518844 0.67478597 1.8855998e-39
0.56889313 -0.19477345 0.67470771 1.8855998e-39
0.57019383 -0.19109374 0.67925006 1.8855998e-39
0.56965894 -0.18852043 0.67220396 1.8855998e-39
0.57210261 -0.18460251 0.67555004 1.8855998e-39
0.56718439 -0.17861596 0.67548823 1.8855998e-39
0.57629538 -0.17510463 0.67503053 1.8855998e-39
0.5793547 -0.16852739 0.67360479 1.8855998e-39
0.58121091 -0.16481781 0.67551869 1.8855998e-39
0.55184269 -0.33331099 0.68432623 1.8855998e-39
0.5495221 -0.32364097 0.68317229 1.8855998e-39
0.55065799 -0.32629815 0.68509758 1.8855998e-39
0.54927695 -0.31603402 0.68434441 1.8855998e-39
0.55040812 -0.31174231 0.6864081 1.8855998e-39
0.55249012 -0.3049925 0.68522984 1.8855998e-39
0.55589306 -0.29489926 0.68495274 1.8855998e-39
0.55815417 -0.28513762 0.68518865 1.8855998e-39
0.55941474 -0.27671358 0.68463576 1.8855998e-39
0.56024265 -0.2716853 0.68599486 1.8855998e-39
0.56121618 -0.26470035 0.68490398 1.8855998e-39
0.56276309 -0.25496146 0.685076 1.8855998e-39
0.56433588 -0.24504693 0.68491006 1.8855998e-39
0.56617326 -0.23534274 0.68499565 1.8855998e-39
0.56784087 -0.22493419 0.68475765 1.8855998e-39
0.56884831 -0.21446136 0.68517858 1.8855998e-39
0.56933916 -0.20523985 0.68404931 1.8855998e-39
0.57022142 -0.20333649 0.6889562 1.8855998e-39
0.56963128 -0.19679691 0.68200088 1.8855998e-39
0.57055163 -0.19427601 0.68605566 1.8855998e-39
0.58227438 -0.19591381 0.68501604 1.8855998e-39
0.57246882 -0.18518265 0.68558121 1.8855998e-39
0.57538086 -0.17508511 0.68615496 1.8855998e-39
0.57822353 -0.16718881 0.68576401 1.8855998e-39
0.58350277 -0.16324215 0.68578625 1.8855998e-39
0.59151411 -0.16389421 0.68981946 1.8855998e-39
0.55068088 -0.33212629 0.6950255 1.8855998e-39
0.54979259 -0.32374898 0.69582993 1.8855998e-39
0.55021983 -0.32675534 0.69525433 1.8855998e-39
0.54957861 -0.31811672 0.693569 1.8855998e-39
0.55105287 -0.31383547 0.69584292 1.8855998e-39
0.55353868 -0.30504724 0.69482332 1.8855998e-39
0.55649227 -0.29503322 0.69481832 1.8855998e-39
0.56004524 -0.29478747 0.69927734 1.8855998e-39
0.55886692 -0.28518194 0.69466412 1.8855998e-39
0.56017214 -0.28093192 0.69856763 1.8855998e-39
0.55967945 -0.27837288 0.69201618 1.8855998e-39
0.56087297 -0.27423292 0.69573623 1.8855998e-39
0.56217963 -0.26527593 0.69478971 1.8855998e-39
0.56384611 -0.25514457 0.69519484 1.8855998e-39
0.56546873 -0.24493551 0.69504017 1.8855998e-39
0.56707019 -0.23466578 0.6950165 1.8855998e-39
0.56854129 -0.22501147 0.6948629 1.8855998e-39
0.56963056 -0.21678707 0.69340181 1.8855998e-39
0.57042718 -0.21342441 0.69680381 1.8855998e-39
0.57113832 -0.20475136 0.69517809 1.8855998e-39
0.57193571 -0.19488487 0.69500595 1.8855998e-39
0.57392025 -0.18469305 0.69484091 1.8855998e-39
0.57719648 -0.17498146 0.69419515 1.8855998e-39
0.57939756 -0.1687005 0.69265002 1.8855998e-39
0.58192551 -0.16553943 0.69469267 1.8855998e-39
0.59645015 -0.16459012 0.69021732 1.8855998e-39
0.55242759 -0.33294865 0.70661104 1.8855998e-39
0.55093336 -0.3249014 0.7051717 1.8855998e-39
0.55181497 -0.31513909 0.70521069 1.8855998e-39
0.55425489 -0.30483985 0.70523149 1.8855998e-39
0.55713493 -0.29470661 0.70505196 1.8855998e-39
0.55928177 -0.28699335 0.70428544 1.8855998e-39
0.56061518 -0.2825624 0.70590454 1.8855998e-39
0.56195515 -0.27522424 0.70489824 1.8855998e-39
0.56370467 -0.26490313 0.70490503 1.8855998e-39
0.56533968 -0.25488517 0.70520544 1.8855998e-39
0.56667632 -0.24501762 0.70491225 1.8855998e-39
0.56801647 -0.23511903 0.70492893 1.8855998e-39
0.56933212 -0.22539136 0.7045216 1.8855998e-39
0.57022226 -0.22164555 0.70775896 1.8855998e-39
0.57101035 -0.21467136 0.70539618 1.8855998e-39
0.57233167 -0.20532595 0.70464206 1.8855998e-39
0.57384807 -0.1949445 0.70527679 1.8855998e-39
0.57598805 -0.18484212 0.70498133 1.8855998e-39
0.57806283 -0.17544553 0.70476347 1.8855998e-39
0.58042449 -0.17251548 0.70873749 1.8855998e-39
0.57915252 -0.16854031 0.70303291 1.8855998e-39
0.58411747 -0.16531554 0.70510942 1.8855998e-39
0.59112889 -0.16159193 0.70786685 1.8855998e-39
0.56321132 -0.3411231 0.71673357 1.8855998e-39
0.55612803 -0.33461258 0.71399146 1.8855998e-39
0.56070858 -0.33806601 0.71710968 1.8855998e-39
0.55209327 -0.32500091 0.71474493 1.8855998e-39
0.55342817 -0.31510893 0.7151292 1.8855998e-39
0.55533487 -0.30505669 0.71491909 1.8855998e-39
0.55811477 -0.29511812 0.71511668 1.8855998e-39
0.55957013 -0.28900644 0.71283889 1.8855998e-39
0.56115359 -0.28430241 0.71530658 1.8855998e-39
0.56307906 -0.27470523 0.71498203 1.8855998e-39
0.55495578 -0.26916903 0.71167845 1.8855998e-39
0.56496477 -0.26476464 0.71495008 1.8855998e-39
0.56640035 -0.25504833 0.71505296 1.8855998e-39
0.56780714 -0.24520373 0.71487099 1.8855998e-39
0.56921667 -0.23517331 0.7148934 1.8855998e-39
0.57012606 -0.2307689 0.71783739 1.8855998e-39
0.56967992 -0.22907116 0.71150905 1.8855998e-39
0.57077926 -0.22445063 0.71550047 1.8855998e-39
0.57201076 -0.21526231 0.71492082 1.8855998e-39
0.57340455 -0.20505083 0.71506017 1.8855998e-39
0.57477385 -0.19470879 0.71550709 1.8855998e-39
0.57714605 -0.18511389 0.71497399 1.8855998e-39
0.5791887 -0.17872392 0.71484423 1.8855998e-39
0.58141243 -0.17366181 0.71330577 1.8855998e-39
0.58511692 -0.16638784 0.71373147 1.8855998e-39
0.59460366 -0.16352251 0.71374255 1.8855998e-39
0.56646663 -0.34286276 0.72100586 1.8855998e-39
0.55571288 -0.33234468 0.72627211 1.8855998e-39
0.56147945 -0.3379578 0.72099411 1.8855998e-39
0.55341655 -0.32498026 0.7251097 1.8855998e-39
0.55475616 -0.31462738 0.72523862 1.8855998e-39
0.5567373 -0.30492288 0.72478557 1.8855998e-39
0.55902648 -0.29616535 0.72478497 1.8855998e-39
0.56049687 -0.29133931 0.72635144 1.8855998e-39
0.56181568 -0.28518438 0.72489709 1.8855998e-39
0.5639711 -0.27506757 0.72500336 1.8855998e-39
0.56582981 -0.26511878 0.72497147 1.8855998e-39
0.56731933 -0.2552169 0.72491086 1.8855998e-39
0.56887853 -0.24511328 0.72516346 1.8855998e-39
0.57009697 -0.24019729 0.72862625 1.8855998e-39
0.56963778 -0.23818578 0.72291744 1.8855998e-39
0.57069248 -0.23386902 0.72584313 1.8855998e-39
0.57191783 -0.22506481 0.7249434 1.8855998e-39
0.573443 -0.21499695 0.72491014 1.8855998e-39
0.57482779 -0.20477235 0.72508168 1.8855998e-39
0.57582873 -0.1952167 0.7250005 1.8855998e-39
0.57710987 -0.18504918 0.72517061 1.8855998e-39
0.57898086 -0.17647842 0.7245813 1.8855998e-39
0.58247799 -0.17217818 0.72629923 1.8855998e-39
0.58605301 -0.1671007 0.72353405 1.8855998e-39
0.59290153 -0.16334723 0.72666621 1.8855998e-39
0.58412075 -0.15548797 0.72437364 1.8855998e-39
0.5663209 -0.3417863 0.7385245 1.8855998e-39
0.55684537 -0.33341432 0.73498827 1.8855998e-39
0.56226283 -0.33867612 0.73781723 1.8855998e-39
0.55583823 -0.32455471 0.73441613 1.8855998e-39
0.54705369 -0.31871057 0.73235166 1.8855998e-39
0.55630499 -0.31504747 0.73523188 1.8855998e-39
0.54755837 -0.30069628 0.73770136 1.8855998e-39
0.55789471 -0.3049629 0.73483884 1.8855998e-39
0.55953306 -0.29796055 0.73490816 1.8855998e-39
0.56075299 -0.29294771 0.73524272 1.8855998e-39
0.55355042 -0.28962421 0.73991323 1.8855998e-39
0.56261945 -0.28489572 0.73498166 1.8855998e-39
0.56456256 -0.27493072 0.73511368 1.8855998e-39
0.566172 -0.26480025 0.73492676 1.8855998e-39
0.57549852 -0.26895624 0.73899204 1.8855998e-39
0.56799281 -0.25484008 0.73482174 1.8855998e-39
0.56941181 -0.24727227 0.73510504 1.8855998e-39
0.57039183 -0.24211194 0.73551184 1.8855998e-39
0.57147044 -0.23527013 0.73484945 1.8855998e-39
0.57292396 -0.22527294 0.73503935 1.8855998e-39
0.57442135 -0.21492761 0.73522449 1.8855998e-39
0.57573146 -0.20515762 0.73499632 1.8855998e-39
0.57700026 -0.19524109 0.73496109 1.8855998e-39
0.57836616 -0.18493418 0.73492354 1.8855998e-39
0.58084977 -0.18133208 0.73877728 1.8855998e-39
0.57909966 -0.1792769 0.73234338 1.8855998e-39
0.58329684 -0.17451404 0.73625469 1.8855998e-39
0.5871734 -0.16693942 0.7356441 1.8855998e-39
0.59366453 -0.16407207 0.73433882 1.8855998e-39
0.60186201 -0.16337836 0.73353857 1.8855998e-39
0.56483233 -0.34083039 0.74872535 1.8855998e-39
0.5569579 -0.33262831 0.74501187 1.8855998e-39
0.56091774 -0.33692476 0.74749649 1.8855998e-39
0.594598 -0.33711407 0.74868804 1.8855998e-39
0.55721617 -0.32504749 0.74492139 1.8855998e-39
0.5582884 -0.31497648 0.74479103 1.8855998e-39
0.55921292 -0.30586752 0.74424976 1.8855998e-39
0.56050766 -0.30262542 0.74784428 1.8855998e-39
0.55983889 -0.29836118 0.74066353 1.8855998e-39
0.561544 -0.29471445 0.74508804 1.8855998e-39
0.56338072 -0.284879 0.74497789 1.8855998e-39
0.56482488 -0.27509978 0.74509114 1.8855998e-39
0.61258566 -0.27078295 0.74887037 1.8855998e-39
0.56627595 -0.26527098 0.74489266 1.8855998e-39
0.60022277 -0.26873735 0.74586993 1.8855998e-39
0.61221671 -0.26744822 0.74926013 1.8855998e-39
0.5681681 -0.25519457 0.74508661 1.8855998e-39
0.60837668 -0.25480211 0.74753803 1.8855998e-39
0.56961507 -0.24754472 0.74446094 1.8855998e-39
0.57057071 -0.24329183 0.74585396 1.8855998e-39
0.57216626 -0.23506737 0.74525952 1.8855998e-39
0.57406551 -0.2248064 0.74545079 1.8855998e-39
0.62173986 -0.22700165 0.74844068 1.8855998e-39
0.57560414 -0.21514693 0.74530923 1.8855998e-39
0.62325335 -0.21284769 0.74915999 1.8855998e-39
0.57709926 -0.20515397 0.74506825 1.8855998e-39
0.57845765 -0.19531704 0.74489492 1.8855998e-39
0.58042139 -0.19249579 0.74896222 1.8855998e-39
0.57917237 -0.18789114 0.74276298 1.8855998e-39
0.58150679 -0.18404409 0.74605417 1.8855998e-39
0.58541149 -0.17518169 0.74478781 1.8855998e-39
0.59070796 -0.17011273 0.74375027 1.8855998e-39
0.58914828 -0.1675173 0.74892038 1.8855998e-39
0.59413779 -0.16468434 0.7447747 1.8855998e-39
0.56701225 -0.34158358 0.75586963 1.8855998e-39
0.57224464 -0.34143254 0.75910586 1.8855998e-39
0.55908906 -0.33197001 0.75141525 1.8855998e-39
0.56479371 -0.3348991 0.75551438 1.8855998e-39
0.57338816 -0.33470815 0.75882661 1.8855998e-39
0.58427966 -0.33351967 0.75589675 1.8855998e-39
0.59084964 -0.33061242 0.75390625 1.8855998e-39
0.55869591 -0.32532355 0.75164467 1.8855998e-39
0.56406587 -0.32514399 0.75654978 1.8855998e-39
0.57433736 -0.32524264 0.75840265 1.8855998e-39
0.58460981 -0.32459474 0.75716841 1.8855998e-39
0.59401321 -0.32268578 0.75405318 1.8855998e-39
0.55948496 -0.31555066 0.75125647 1.8855998e-39
0.56393993 -0.314998 0.75719345 1.8855998e-39
0.57498813 -0.31637612 0.75953352 1.8855998e-39
0.58514571 -0.31482837 0.75864577 1.8855998e-39
0.59445584 -0.31440374 0.7558713 1.8855998e-39
0.60290039 -0.31661189 0.75001812 1.8855998e-39
0.56299001 -0.30507222 0.7557478 1.8855998e-39
0.58586282 -0.30494419 0.75921988 1.8855998e-39
0.59471595 -0.30511418 0.75642163 1.8855998e-39
0.60248202 -0.30328006 0.75274754 1.8855998e-39
0.55332023 -0.29154381 0.75022793 1.8855998e-39
0.56490642 -0.29515168 0.75548303 1.8855998e-39
0.58613741 -0.2948173 0.7590344 1.8855998e-39
0.59490424 -0.29500827 0.75645083 1.8855998e-39
0.6014837 -0.29485273 0.75413942 1.8855998e-39
0.56636959 -0.28558061 0.75456446 1.8855998e-39
0.57262135 -0.28390348 0.75925869 1.8855998e-39
0.58503604 -0.28498894 0.75902182 1.8855998e-39
0.59463745 -0.2849856 0.75650537 1.8855998e-39
0.60208142 -0.28528941 0.75422633 1.8855998e-39
0.56731254 -0.27515364 0.75402761 1.8855998e-39
0.57290673 -0.27498606 0.75914389 1.8855998e-39
0.58532423 -0.27509978 0.75888085 1.8855998e-39
0.59468079 -0.2748042 0.7566911 1.8855998e-39
0.60376734 -0.27480987 0.75365919 1.8855998e-39
0.56819451 -0.26506144 0.75308567 1.8855998e-39
0.57254994 -0.26435432 0.75840068 1.8855998e-39
0.58574718 -0.26554289 0.75884527 1.8855998e-39
0.59426099 -0.26497573 0.75690436 1.8855998e-39
0.60321069 -0.26488876 0.75425047 1.8855998e-39
0.61050159 -0.26268461 0.75107145 1.8855998e-39
0.56926191 -0.25560737 0.7522496 1.8855998e-39
0.57329011 -0.25451598 0.75763243 1.8855998e-39
0.58677697 -0.25542092 0.75908905 1.8855998e-39
0.59554732 -0.25504419 0.75686258 1.8855998e-39
0.60524446 -0.25495183 0.75436169 1.8855998e-39
0.61178362 -0.25413409 0.75200146 1.8855998e-39
0.574067 -0.24504754 0.75632101 1.8855998e-39
0.58862513 -0.24474002 0.75971264 1.8855998e-39
0.59478873 -0.24508806 0.75807256 1.8855998e-39
0.60496402 -0.24468234 0.75530928 1.8855998e-39
0.6118108 -0.24532525 0.75327551 1.8855998e-39
0.5756827 -0.2352777 0.75577587 1.8855998e-39
0.58173084 -0.23389077 0.75983185 1.8855998e-39
0.59607393 -0.23514363 0.75893205 1.8855998e-39
0.60489905 -0.23516655 0.75654209 1.8855998e-39
0.61368549 -0.23494478 0.75319844 1.8855998e-39
0.57722598 -0.22563362 0.75468385 1.8855998e-39
0.58320338 -0.2250791 0.75943655 1.8855998e-39
0.59793431 -0.22659636 0.75948358 1.8855998e-39
0.60488188 -0.22456527 0.75783634 1.8855998e-39
0.61409098 -0.22482768 0.75434589 1.8855998e-39
0.57842404 -0.21550702 0.75378078 1.8855998e-39
0.58193314 -0.21465458 0.75846499 1.8855998e-39
0.59997177 -0.21558967 0.75994557 1.8855998e-39
0.60508251 -0.21548502 0.75860882 1.8855998e-39
0.61310321 -0.21470542 0.75619847 1.8855998e-39
0.62000322 -0.21000916 0.75253075 1.8855998e-39
0.57893056 -0.20605597 0.7525968 1.8855998e-39
0.58200043 -0.20451571 0.7572003 1.8855998e-39
0.60521281 -0.20518401 0.75892091 1.8855998e-39
0.6143142 -0.20511785 0.7561186 1.8855998e-39
0.62291795 -0.20118083 0.75179303 1.8855998e-39
0.57966036 -0.1988387 0.75103074 1.8855998e-39
0.58295006 -0.19430646 0.75558197 1.8855998e-39
0.60638684 -0.1949629 0.75872415 1.8855998e-39
0.61432236 -0.19487825 0.75616753 1.8855998e-39
0.62122864 -0.19501545 0.75353879 1.8855998e-39
0.58534336 -0.18479533 0.75508046 1.8855998e-39
0.60568881 -0.18481502 0.7585386 1.8855998e-39
0.61540294 -0.18503585 0.75504243 1.8855998e-39
0.62181675 -0.18967736 0.75293106 1.8855998e-39
0.58739495 -0.17574936 0.75453132 1.8855998e-39
0.59482569 -0.17328772 0.75841784 1.8855998e-39
0.60488808 -0.17508908 0.75782192 1.8855998e-39
0.61452007 -0.17576659 0.75515097 1.8855998e-39
0.58822191 -0.16909067 0.75222081 1.8855998e-39
0.59524363 -0.16685236 0.75361633 1.8855998e-39
0.60444397 -0.16639873 0.7549749 1.8855998e-39
0.61181515 -0.16703825 0.75575739 1.8855998e-39
0.57746804 -0.33685252 0.76035506 1.8855998e-39
0.58054298 -0.33031678 0.76229948 1.8855998e-39
0.57477844 -0.31196886 0.76023585 1.8855998e-39
0.56784326 -0.30487183 0.76018387 1.8855998e-39
0.57422501 -0.30494577 0.76092124 1.8855998e-39
0.58058858 -0.30506328 0.76058167 1.8855998e-39
0.56868505 -0.29722279 0.76026314 1.8855998e-39
0.5742237 -0.29496345 0.76091909 1.8855998e-39
0.58076042 -0.29526991 0.76039344 1.8855998e-39
0.57483107 -0.28557274 0.7605533 1.8855998e-39
0.57554698 -0.27515116 0.76045024 1.8855998e-39
0.60922307 -0.27758139 0.76051408 1.8855998e-39
0.57740843 -0.26585037 0.76044285 1.8855998e-39
0.58090085 -0.26262587 0.76023972 1.8855998e-39
0.57892054 -0.255312 0.76016229 1.8855998e-39
0.58167076 -0.25412133 0.76042086 1.8855998e-39
0.57174867 -0.24625421 0.76904804 1.8855998e-39
0.58333135 -0.2446238 0.76034892 1.8855998e-39
0.5862425 -0.23535083 0.76027131 1.8855998e-39
0.59160149 -0.23254701 0.7603296 1.8855998e-39
0.5879823 -0.224447 0.76022071 1.8855998e-39
0.59324062 -0.22447112 0.76049119 1.8855998e-39
0.58651108 -0.21481471 0.7608785 1.8855998e-39
0.594751 -0.21493404 0.76076078 1.8855998e-39
0.58685106 -0.20463993 0.76155621 1.8855998e-39
0.59564555 -0.20505066 0.76113218 1.8855998e-39
0.58761209 -0.19519472 0.76161081 1.8855998e-39
0.59513813 -0.19502363 0.76171845 1.8855998e-39
0.60184366 -0.19499665 0.76021546 1.8855998e-39
0.58887422 -0.18692425 0.7610172 1.8855998e-39
0.59494817 -0.18488775 0.76134163 1.8855998e-39
0.60191083 -0.18959554 0.76014441 1.8855998e-39
0.59366542 -0.17800654 0.76066875 1.8855998e-39
0.57836443 -0.2940999 0.77189159 1.8855998e-39
0.60386556 0.2279578 0.62059098 8.8671855e-39
0.61748308 0.23973779 0.62784928 8.8671855e-39
0.62798309 0.23963137 0.62857366 8.8671855e-39
0.60537606 0.24552539 0.62706554 8.8671855e-39
0.61166072 0.24042365 0.62828618 8.8671855e-39
0.57160962 0.25561517 0.62189174 8.8671855e-39
0.5967173 0.25628114 0.62585825 8.8671855e-39
0.60080612 0.25122738 0.62696785 8.8671855e-39
0.58716273 0.26695436 0.62524378 8.8671855e-39
0.59216493 0.26249722 0.62521499 8.8671855e-39
0.57759678 0.27769443 0.62565005 8.8671855e-39
0.58201027 0.27275872 0.62450588 8.8671855e-39
0.56928891 0.28834289 0.62542617 8.8671855e-39
0.5727405 0.28334421 0.62460345 8.8671855e-39
0.56519252 0.29499659 0.62469226 8.8671855e-39
0.55650437 0.30611891 0.62549084 8.8671855e-39
0.56128532 0.3017661 0.62237829 8.8671855e-39
0.54753309 0.31699938 0.62653744 8.8671855e-39
0.5518164 0.31243682 0.62442654 8.8671855e-39
0.54354995 0.32360235 0.62551695 8.8671855e-39
0.54836887 0.33058226 0.6255731 8.8671855e-39
0.61648434 0.23652554 0.63182598 8.8671855e-39
0.62365204 0.23917802 0.63434094 8.8671855e-39
0.60577059 0.24617338 0.63505393 8.8671855e-39
0.61399597 0.24127685 0.63395965 8.8671855e-39
0.5971604 0.25675192 0.63479453 8.8671855e-39
0.60134715 0.25184461 0.6349476 8.8671855e-39
0.58722979 0.26729512 0.63493001 8.8671855e-39
0.59240592 0.26227701 0.63514709 8.8671855e-39
0.60616302 0.2645995 0.63672256 8.8671855e-39
0.57787645 0.27737764 0.63508523 8.8671855e-39
0.58246017 0.2724281 0.63530153 8.8671855e-39
0.56835264 0.28789607 0.63518882 8.8671855e-39
0.57276392 0.28283659 0.63487434 8.8671855e-39
0.55853736 0.29879954 0.63585407 8.8671855e-39
0.56340528 0.29381096 0.63528007 8.8671855e-39
0.55486917 0.30466437 0.63520658 8.8671855e-39
0.54723924 0.31600192 0.63547063 8.8671855e-39
0.55077785 0.31078809 0.63438261 8.8671855e-39
0.54342377 0.3235538 0.63483787 8.8671855e-39
0.61619276 0.23831147 0.64660144 8.8671855e-39
0.62279284 0.23518834 0.64732111 8.8671855e-39
0.6069566 0.24626695 0.64484674 8.8671855e-39
0.61118144 0.24147688 0.64549184 8.8671855e-39
0.59766209 0.25705126 0.64457649 8.8671855e-39
0.60202152 0.25213161 0.64504153 8.8671855e-39
0.58772236 0.26743534 0.64504945 8.8671855e-39
0.59272313 0.26236254 0.6445654 8.8671855e-39
0.57797623 0.2775577 0.64505714 8.8671855e-39
0.58263242 0.27269101 0.64513379 8.8671855e-39
0.56841975 0.28784031 0.64494383 8.8671855e-39
0.57293695 0.28287676 0.64472675 8.8671855e-39
0.55910456 0.29870364 0.64448118 8.8671855e-39
0.56313592 0.29381278 0.64509523 8.8671855e-39
0.55407691 0.30505747 0.64504331 8.8671855e-39
0.54686534 0.31529909 0.64529204 8.8671855e-39
0.55137855 0.31102431 0.6439324 8.8671855e-39
0.54395443 0.32429984 0.64501613 8.8671855e-39
0.55002016 0.32719761 0.64025038 8.8671855e-39
0.54849124 0.33071437 0.6437465 8.8671855e-39
0.61719322 0.23849367 0.65440512 8.8671855e-39
0.62251127 0.23635732 0.65572643 8.8671855e-39
0.60708541 0.24693334 0.65488303 8.8671855e-39
0.61313486 0.24190083 0.65553975 8.8671855e-39
0.59726924 0.2574071 0.65463978 8.8671855e-39
0.6021682 0.25228909 0.65494615 8.8671855e-39
0.5873785 0.26740924 0.65573913 8.8671855e-39
0.59223092 0.26249969 0.65474993 8.8671855e-39
0.57769477 0.27755928 0.65490758 8.8671855e-39
0.58269739 0.27255711 0.65482473 8.8671855e-39
0.56755018 0.28759027 0.65520239 8.8671855e-39
0.57280028 0.28261751 0.655186 8.8671855e-39
0.55891234 0.29883444 0.65470886 8.8671855e-39
0.56307054 0.29369211 0.65511984 8.8671855e-39
0.55408823 0.30501005 0.6551789 8.8671855e-39
0.53726929 0.31276095 0.65136665 8.8671855e-39
0.54625213 0.31511137 0.65525919 8.8671855e-39
0.55020803 0.31011736 0.65308142 8.8671855e-39
0.54556799 0.32510597 0.65494609 8.8671855e-39
0.54890192 0.33115119 0.6548506 8.8671855e-39
0.60279804 0.23601656 0.6639086 8.8671855e-39
0.6174314 0.2392789 0.66596943 8.8671855e-39
0.62236285 0.23667096 0.66564059 8.8671855e-39
0.60717261 0.24737056 0.66519779 8.8671855e-39
0.61290318 0.24249873 0.66568643 8.8671855e-39
0.5973559 0.2572149 0.66481131 8.8671855e-39
0.60217059 0.25217831 0.66509253 8.8671855e-39
0.58735096 0.26736876 0.66560769 8.8671855e-39
0.5922581 0.26244739 0.66475236 8.8671855e-39
0.57759464 0.27764034 0.66484869 8.8671855e-39
0.58234811 0.27258599 0.66513473 8.8671855e-39
0.5679453 0.28813499 0.66454411 8.8671855e-39
0.57255507 0.28311372 0.66511518 8.8671855e-39
0.55890602 0.29862702 0.66499561 8.8671855e-39
0.56295955 0.29371303 0.6647864 8.8671855e-39
0.54984272 0.3095994 0.66942328 8.8671855e-39
0.55399412 0.3047289 0.66509324 8.8671855e-39
0.54604465 0.3146795 0.66512567 8.8671855e-39
0.55159456 0.31989554 0.66726822 8.8671855e-39
0.54347992 0.32451838 0.66687191 8.8671855e-39
0.5443092 0.33057982 0.66898221 8.8671855e-39
0.61804062 0.23855646 0.67436171 8.8671855e-39
0.62239671 0.2372086 0.67739528 8.8671855e-39
0.60724694 0.24715616 0.67532146 8.8671855e-39
0.6136657 0.24215342 0.67615902 8.8671855e-39
0.59748316 0.25730714 0.674932 8.8671855e-39
0.60222787 0.25229725 0.67506629 8.8671855e-39
0.58760035 0.26741558 0.6752069 8.8671855e-39
0.59250379 0.26238042 0.67478883 8.8671855e-39
0.57762796 0.27767864 0.67503071 8.8671855e-39
0.5826171 0.27258211 0.67495573 8.8671855e-39
0.56778133 0.28747687 0.67467558 8.8671855e-39
0.57263023 0.28291667 0.67508745 8.8671855e-39
0.55855107 0.29862404 0.67591155 8.8671855e-39
0.56289548 0.2935417 0.67483896 8.8671855e-39
0.54957247 0.30958688 0.67626709 8.8671855e-39
0.55343044 0.30493122 0.67490369 8.8671855e-39
0.54576147 0.31473222 0.67467642 8.8671855e-39
0.54566848 0.3246606 0.67261034 8.8671855e-39
0.55041075 0.32842314 0.67127484 8.8671855e-39
0.548127 0.33062023 0.67945683 8.8671855e-39
0.619232 0.23926157 0.68626565 8.8671855e-39
0.62344593 0.23731172 0.68421316 8.8671855e-39
0.60740411 0.24770164 0.68400294 8.8671855e-39
0.61418903 0.24283236 0.68559879 8.8671855e-39
0.59747261 0.25734463 0.68493384 8.8671855e-39
0.60242647 0.25226113 0.68502045 8.8671855e-39
0.58748382 0.26751804 0.6848048 8.8671855e-39
0.5923515 0.26247662 0.68478119 8.8671855e-39
0.57766271 0.27751595 0.68506455 8.8671855e-39
0.58255988 0.27242848 0.6852954 8.8671855e-39
0.56803179 0.28782943 0.68496644 8.8671855e-39
0.57263321 0.28289431 0.68490613 8.8671855e-39
0.55854797 0.29844564 0.68545651 8.8671855e-39
0.56282437 0.29349968 0.68506485 8.8671855e-39
0.54952341 0.30936334 0.68593508 8.8671855e-39
0.55370855 0.30437779 0.68480599 8.8671855e-39
0.54586971 0.31475651 0.68511343 8.8671855e-39
0.54588628 0.32435545 0.68589216 8.8671855e-39
0.5474233 0.3305445 0.68548965 8.8671855e-39
0.61781704 0.23846704 0.69601369 8.8671855e-39
0.62389958 0.23711564 0.69597894 8.8671855e-39
0.59720379 0.24454413 0.69873911 8.8671855e-39
0.60708815 0.2470275 0.69550914 8.8671855e-39
0.61339504 0.24206331 0.69421566 8.8671855e-39
0.6291241 0.24281472 0.69084394 8.8671855e-39
0.59716296 0.25726289 0.69502848 8.8671855e-39
0.60216284 0.25213853 0.69492114 8.8671855e-39
0.58733845 0.26738197 0.69509059 8.8671855e-39
0.59217995 0.26241928 0.69527519 8.8671855e-39
0.57743126 0.27733719 0.69487977 8.8671855e-39
0.58230352 0.27261031 0.69504571 8.8671855e-39
0.56788397 0.28803587 0.6952529 8.8671855e-39
0.57267201 0.28279516 0.69501156 8.8671855e-39
0.55885959 0.29829916 0.69501156 8.8671855e-39
0.56294578 0.29353088 0.69499379 8.8671855e-39
0.5496586 0.30931967 0.69145799 8.8671855e-39
0.55370092 0.30467105 0.6949293 8.8671855e-39
0.54866773 0.31531325 0.69300276 8.8671855e-39
0.5507797 0.31292006 0.69450814 8.8671855e-39
0.54777467 0.32456514 0.6927495 8.8671855e-39
0.61526936 0.23807462 0.70471275 8.8671855e-39
0.62387872 0.23934357 0.70095855 8.8671855e-39
0.60694653 0.24704301 0.70529115 8.8671855e-39
0.61171836 0.2419226 0.70494896 8.8671855e-39
0.62840408 0.24015214 0.70085853 8.8671855e-39
0.63068086 0.24055892 0.70080823 8.8671855e-39
0.59721875 0.25691757 0.70494634 8.8671855e-39
0.60198748 0.25251386 0.70510453 8.8671855e-39
0.58726645 0.26728249 0.70499516 8.8671855e-39
0.59213799 0.26218402 0.70521569 8.8671855e-39
0.57769793 0.27736771 0.705127 8.8671855e-39
0.58239162 0.27238593 0.70497936 8.8671855e-39
0.56796515 0.28795904 0.70493764 8.8671855e-39
0.57263637 0.28287265 0.70519221 8.8671855e-39
0.55868316 0.29882523 0.7048437 8.8671855e-39
0.56306881 0.29353887 0.70505297 8.8671855e-39
0.54705662 0.30974531 0.70488453 8.8671855e-39
0.5537287 0.30471024 0.70512003 8.8671855e-39
0.5462181 0.31438369 0.70591366 8.8671855e-39
0.54380453 0.3247647 0.70604581 8.8671855e-39
0.54467642 0.33024329 0.70900983 8.8671855e-39
0.61686289 0.23881587 0.71459854 8.8671855e-39
0.62504792 0.2377841 0.71541119 8.8671855e-39
0.6074605 0.2474647 0.71530163 8.8671855e-39
0.61238372 0.24222529 0.71476668 8.8671855e-39
0.59720844 0.25724509 0.71463388 8.8671855e-39
0.60264862 0.25219089 0.71458447 8.8671855e-39
0.58722103 0.26699275 0.71489382 8.8671855e-39
0.59215158 0.26197261 0.71511495 8.8671855e-39
0.57724559 0.27731463 0.71495718 8.8671855e-39
0.58212513 0.27250931 0.71531284 8.8671855e-39
0.56833953 0.28777036 0.71483713 8.8671855e-39
0.57271874 0.28294197 0.71503025 8.8671855e-39
0.55899078 0.29851499 0.71490788 8.8671855e-39
0.56332773 0.29345894 0.71505105 8.8671855e-39
0.54961431 0.30948043 0.71500009 8.8671855e-39
0.55400968 0.30429134 0.71520102 8.8671855e-39
0.54620808 0.31454402 0.71476758 8.8671855e-39
0.54542214 0.32514119 0.7141242 8.8671855e-39
0.54582369 0.33092386 0.71366978 8.8671855e-39
0.61757922 0.23931666 0.72246104 8.8671855e-39
0.62405628 0.23819695 0.72556931 8.8671855e-39
0.60751867 0.24733837 0.72490394 8.8671855e-39
0.61317104 0.24204648 0.72546232 8.8671855e-39
0.59723526 0.25742859 0.72498047 8.8671855e-39
0.60253406 0.25245547 0.72475439 8.8671855e-39
0.5873431 0.26709083 0.72494805 8.8671855e-39
0.59229004 0.26211512 0.72504288 8.8671855e-39
0.57771575 0.27747357 0.7249428 8.8671855e-39
0.58240652 0.27248293 0.72522008 8.8671855e-39
0.5681082 0.28802106 0.72532183 8.8671855e-39
0.57248724 0.28312498 0.72484308 8.8671855e-39
0.55888247 0.29885107 0.72507322 8.8671855e-39
0.56310582 0.29388434 0.72485399 8.8671855e-39
0.54970306 0.30974886 0.72532302 8.8671855e-39
0.55387825 0.30472764 0.7251544 8.8671855e-39
0.54656363 0.31500074 0.72551 8.8671855e-39
0.55576134 0.31498909 0.72672105 8.8671855e-39
0.54385626 0.32479915 0.72609752 8.8671855e-39
0.54279798 0.33008868 0.72587961 8.8671855e-39
0.61939192 0.23987055 0.73234612 8.8671855e-39
0.62468642 0.23873761 0.73569965 8.8671855e-39
0.60759503 0.24734528 0.73475897 8.8671855e-39
0.61430597 0.24219318 0.73546189 8.8671855e-39
0.62136036 0.24060757 0.73960322 8.8671855e-39
0.59752351 0.25752494 0.73504347 8.8671855e-39
0.60258704 0.25251409 0.73508132 8.8671855e-39
0.58713496 0.26737878 0.73517382 8.8671855e-39
0.59250933 0.26235762 0.73463506 8.8671855e-39
0.57771635 0.2773971 0.73540878 8.8671855e-39
0.58216971 0.2726078 0.73491067 8.8671855e-39
0.5682615 0.28790274 0.73532313 8.8671855e-39
0.57272714 0.28285161 0.73489136 8.8671855e-39
0.55903023 0.29878569 0.73506963 8.8671855e-39
0.56327134 0.29375654 0.73475718 8.8671855e-39
0.55400175 0.30486318 0.73497242 8.8671855e-39
0.56068498 0.30958718 0.73543304 8.8671855e-39
0.54839277 0.31556535 0.735008 8.8671855e-39
0.55038476 0.31060368 0.73319244 8.8671855e-39
0.54530889 0.32501373 0.73500669 8.8671855e-39
0.54361373 0.33042759 0.73434812 8.8671855e-39
0.62749106 0.23937581 0.74398392 8.8671855e-39
0.60758764 0.24762423 0.7447201 8.8671855e-39
0.61309129 0.24306689 0.74526972 8.8671855e-39
0.62399936 0.24106479 0.74315625 8.8671855e-39
0.58398569 0.25482568 0.74567634 8.8671855e-39
0.59744054 0.25754678 0.74504006 8.8671855e-39
0.60286522 0.25260931 0.74508619 8.8671855e-39
0.58712816 0.26719695 0.74475121 8.8671855e-39
0.59239817 0.2621868 0.74546462 8.8671855e-39
0.57765895 0.27784491 0.74501604 8.8671855e-39
0.58224767 0.27267867 0.74507737 8.8671855e-39
0.56822789 0.28819248 0.74482137 8.8671855e-39
0.5727514 0.28328875 0.74520582 8.8671855e-39
0.55897462 0.29861894 0.74514425 8.8671855e-39
0.56336641 0.29357985 0.74509084 8.8671855e-39
0.54957765 0.30977955 0.74427319 8.8671855e-39
0.55387652 0.30462638 0.7450583 8.8671855e-39
0.54651988 0.31436127 0.74580055 8.8671855e-39
0.54405987 0.32591972 0.7453146 8.8671855e-39
0.54522389 0.33063641 0.74407089 8.8671855e-39
0.61803526 0.23936756 0.75638592 8.8671855e-39
0.62343478 0.23754114 0.75681561 8.8671855e-39
0.60784483 0.24762471 0.75450361 8.8671855e-39
0.61268175 0.24283426 0.75514919 8.8671855e-39
0.5975123 0.25774965 0.75495148 8.8671855e-39
0.60266924 0.25277835 0.75521129 8.8671855e-39
0.58774877 0.26755938 0.75457621 8.8671855e-39
0.59280795 0.26294142 0.7555818 8.8671855e-39
0.57830757 0.27778953 0.75500405 8.8671855e-39
0.58283788 0.2729944 0.75524223 8.8671855e-39
0.56874663 0.2883856 0.75453442 8.8671855e-39
0.57330847 0.28342122 0.75516337 8.8671855e-39
0.5920766 0.28106618 0.75229168 8.8671855e-39
0.55923885 0.29894605 0.75463551 8.8671855e-39
0.56373531 0.29398525 0.75517535 8.8671855e-39
0.54959458 0.30945259 0.75359184 8.8671855e-39
0.55422741 0.30445749 0.75507873 8.8671855e-39
0.5451442 0.31527266 0.75500327 8.8671855e-39
0.5399608 0.32165372 0.75039107 8.8671855e-39
0.54527169 0.32501835 0.7546677 8.8671855e-39
0.54800731 0.33122143 0.7547425 8.8671855e-39
0.61759233 0.2393562 0.76552755 8.8671855e-39
0.62370449 0.23802011 0.76551485 8.8671855e-39
0.60771018 0.24789651 0.76527393 8.8671855e-39
0.61294299 0.24271812 0.76491934 8.8671855e-39
0.6259945 0.2483612 0.76401168 8.8671855e-39
0.59796667 0.25769082 0.76484227 8.8671855e-39
0.60266262 0.25294518 0.76525778 8.8671855e-39
0.57101327 0.26873496 0.76986659 8.8671855e-39
0.58811259 0.26782963 0.76478839 8.8671855e-39
0.59301108 0.26299593 0.76525694 8.8671855e-39
0.57847834 0.27841389 0.76512313 8.8671855e-39
0.58307922 0.27347755 0.76511008 8.8671855e-39
0.56883812 0.28876096 0.76479524 8.8671855e-39
0.57339019 0.28384489 0.76499176 8.8671855e-39
0.55930418 0.2991772 0.76504099 8.8671855e-39
0.56376904 0.29433069 0.76516032 8.8671855e-39
0.54953492 0.30963832 0.76292938 8.8671855e-39
0.55421484 0.30473217 0.76524526 8.8671855e-39
0.54597408 0.31421247 0.7652961 8.8671855e-39
0.54473251 0.32493263 0.76652431 8.8671855e-39
0.6196028 0.23967011 0.77090436 8.8671855e-39
0.62526554 0.23930314 0.77275532 8.8671855e-39
0.6084938 0.24818355 0.77418709 8.8671855e-39
0.61385202 0.24342221 0.77553821 8.8671855e-39
0.62593687 0.24086413 0.77643657 8.8671855e-39
0.59789836 0.25807557 0.77430558 8.8671855e-39
0.60367024 0.25323278 0.7751224 8.8671855e-39
0.58846784 0.26838493 0.7750681 8.8671855e-39
0.59331894 0.26344022 0.77504748 8.8671855e-39
0.57851589 0.27858692 0.7750448 8.8671855e-39
0.58350021 0.27351514 0.77506882 8.8671855e-39
0.56884724 0.28898805 0.77463365 8.8671855e-39
0.57352477 0.28390637 0.77500683 8.8671855e-39
0.55947018 0.29949263 0.77497947 8.8671855e-39
0.56381458 0.29454398 0.7751196 8.8671855e-39
0.55473304 0.30510119 0.77468103 8.8671855e-39
0.54643667 0.31489328 0.77474457 8.8671855e-39
0.55038589 0.31032249 0.77564001 8.8671855e-39
0.54514259 0.32481396 0.77493888 8.8671855e-39
0.54636759 0.33059469 0.77580047 8.8671855e-39
0.62447143 0.23936343 0.78684485 8.8671855e-39
0.60809982 0.2493287 0.78546411 8.8671855e-39
0.6154182 0.24480462 0.78385168 8.8671855e-39
0.62181062 0.24110052 0.78620189 8.8671855e-39
0.59845519 0.25833657 0.78504056 8.8671855e-39
0.60324162 0.25347504 0.78518444 8.8671855e-39
0.58846551 0.26852277 0.78541422 8.8671855e-39
0.59330654 0.26360106 0.78477192 8.8671855e-39
0.57865417 0.27864158 0.7848807 8.8671855e-39
0.58342057 0.27367589 0.7851913 8.8671855e-39
0.56847423 0.28824615 0.78387874 8.8671855e-39
0.57362294 0.28409657 0.78515071 8.8671855e-39
0.55946243 0.29961538 0.78479517 8.8671855e-39
0.56411856 0.294462 0.78513151 8.8671855e-39
0.55484831 0.30497351 0.78469664 8.8671855e-39
0.54689705 0.31505474 0.78470218 8.8671855e-39
0.55030024 0.31039938 0.78462791 8.8671855e-39
0.54652178 0.3249298 0.78402877 8.8671855e-39
0.5473783 0.33023405 0.78194368 8.8671855e-39
0.62559164 0.23919272 0.79519212 8.8671855e-39
0.60864955 0.24907558 0.79419827 8.8671855e-39
0.61477137 0.2454958 0.79453778 8.8671855e-39
0.62186915 0.24133569 0.79472297 8.8671855e-39
0.59855372 0.25857571 0.79530066 8.8671855e-39
0.60349083 0.25362888 0.79500151 8.8671855e-39
0.58860666 0.26851758 0.79473037 8.8671855e-39
0.59355062 0.26343969 0.79496294 8.8671855e-39
0.57891428 0.27872753 0.79475254 8.8671855e-39
0.58371896 0.2736856 0.795035 8.8671855e-39
0.56911463 0.28909364 0.79477334 8.8671855e-39
0.57389557 0.28399876 0.79523051 8.8671855e-39
0.55962962 0.29939008 0.79425627 8.8671855e-39
0.5640853 0.2945275 0.79520941 8.8671855e-39
0.55498916 0.30495626 0.79466069 8.8671855e-39
0.54720783 0.31563994 0.7941215 8.8671855e-39
0.55087703 0.31121913 0.79665917 8.8671855e-39
0.54288697 0.32403746 0.79674786 8.8671855e-39
0.61779606 0.23571302 0.8001954 8.8671855e-39
0.62619931 0.2392972 0.80224484 8.8671855e-39
0.60916108 0.24905857 0.80436677 8.8671855e-39
0.61452842 0.24508421 0.80622333 8.8671855e-39
0.62511158 0.2424487 0.80511028 8.8671855e-39
0.63074821 0.24613224 0.80741656 8.8671855e-39
0.59896708 0.25912613 0.80438179 8.8671855e-39
0.60438865 0.25435215 0.80543745 8.8671855e-39
0.61071539 0.25082141 0.80965346 8.8671855e-39
0.58871019 0.26860353 0.80307359 8.8671855e-39
0.5943011 0.26438031 0.80592471 8.8671855e-39
0.57895243 0.27874321 0.80294025 8.8671855e-39
0.5845502 0.27447501 0.80584955 8.8671855e-39
0.59088439 0.27046502 0.80924803 8.8671855e-39
0.60335141 0.27304241 0.80885887 8.8671855e-39
0.56920332 0.2894063 0.80312467 8.8671855e-39
0.57459319 0.28479308 0.80573332 8.8671855e-39
0.58078599 0.28067917 0.80897331 8.8671855e-39
0.55961829 0.29990178 0.80061978 8.8671855e-39
0.56530184 0.29512033 0.80491358 8.8671855e-39
0.57464498 0.29473549 0.80920064 8.8671855e-39
0.58356172 0.29614586 0.80781227 8.8671855e-39
0.55630785 0.30589268 0.80459601 8.8671855e-39
0.56138331 0.30163246 0.80775917 8.8671855e-39
0.5758642 0.30358005 0.8075307 8.8671855e-39
0.58010489 0.30227405 0.80654401 8.8671855e-39
0.54704392 0.3161917 0.80492055 8.8671855e-39
0.55190134 0.3119638 0.80685902 8.8671855e-39
0.56369615 0.31541592 0.80782843 8.8671855e-39
0.54528725 0.32499933 0.80506581 8.8671855e-39
0.55370605 0.32487994 0.80899924 8.8671855e-39
0.61697757 0.24755096 0.81163418 8.8671855e-39
0.62218887 0.24629584 0.81394839 8.8671855e-39
0.60636163 0.25718614 0.8114779 8.8671855e-39
0.61466032 0.25419983 0.81273782 8.8671855e-39
0.62105584 0.25127453 0.81436974 8.8671855e-39
0.59673035 0.2662127 0.81178319 8.8671855e-39
0.6041972 0.26377892 0.81254208 8.8671855e-39
0.61022371 0.26105613 0.81426072 8.8671855e-39
0.58713526 0.27689248 0.81212413 8.8671855e-39
0.59244204 0.27407721 0.81353939 8.8671855e-39
0.57724756 0.28765848 0.81217176 8.8671855e-39
0.58382535 0.28319663 0.8134675 8.8671855e-39
0.59072679 0.28139839 0.81525403 8.8671855e-39
0.5672338 0.29689965 0.81163538 8.8671855e-39
0.57281268 0.29305306 0.81221157 8.8671855e-39
0.5583238 0.30813971 0.81201857 8.8671855e-39
0.56338882 0.30338666 0.81250799 8.8671855e-39
0.57199347 0.30140135 0.81065404 8.8671855e-39
0.54840702 0.31848463 0.81151563 8.8671855e-39
0.55375326 0.31465623 0.81204188 8.8671855e-39
0.54823333 0.3226611 0.81092751 8.8671855e-39
0.55186898 0.32317781 0.81122929 8.8671855e-39
0.58302546 -0.070225053 0.62533778 1.2356364e-38
0.57837582 -0.062935516 0.62529886 1.2356364e-38
0.5812797 -0.067445233 0.62527817 1.2356364e-38
0.57350248 -0.055245712 0.62561506 1.2356364e-38
0.56772923 -0.044578254 0.62574065 1.2356364e-38
0.57032645 -0.049324632 0.62297499 1.2356364e-38
0.56237471 -0.034595944 0.6255191 1.2356364e-38
0.55704987 -0.024534885 0.62533808 1.2356364e-38
0.5493319 -0.010940179 0.62560278 1.2356364e-38
0.55222303 -0.015834298 0.62459844 1.2356364e-38
0.54562593 -0.0042846114 0.62527221 1.2356364e-38
0.55668581 -0.0036811605 0.62114668 1.2356364e-38
0.53893071 0.0081117414 0.62506366 1.2356364e-38
0.5415504 0.0031763285 0.62549812 1.2356364e-38
0.53463596 0.015356701 0.62553012 1.2356364e-38
0.52832705 0.026722232 0.62554359 1.2356364e-38
0.53084904 0.022271089 0.62464839 1.2356364e-38
0.52583033 0.034528937 0.62471682 1.2356364e-38
0.52422667 0.044931393 0.62509716 1.2356364e-38
0.52925909 0.050335407 0.62651229 1.2356364e-38
0.53493893 0.054151896 0.62571168 1.2356364e-38
0.54243296 0.058850419 0.62563199 1.2356364e-38
0.54686379 0.061601974 0.62602812 1.2356364e-38
0.55403602 0.06630788 0.62736458 1.2356364e-38
0.56533515 0.072277501 0.62701505 1.2356364e-38
0.57813036 -0.06323041 0.63516462 1.2356364e-38
0.58117586 -0.06846296 0.63524437 1.2356364e-38
0.57324648 -0.054499637 0.63524109 1.2356364e-38
0.56742561 -0.043878093 0.6348204 1.2356364e-38
0.57013124 -0.048572879 0.63702738 1.2356364e-38
0.56252134 -0.034556154 0.6344353 1.2356364e-38
0.55727649 -0.024642145 0.63483673 1.2356364e-38
0.56005073 -0.029832615 0.63834798 1.2356364e-38
0.54995382 -0.011556404 0.63442928 1.2356364e-38
0.55254674 -0.016083894 0.63480133 1.2356364e-38
0.54654813 -0.0055177785 0.63478601 1.2356364e-38
0.53896642 0.0083956905 0.63489485 1.2356364e-38
0.54188335 0.0030738234 0.6349383 1.2356364e-38
0.53480393 0.015636276 0.63486624 1.2356364e-38
0.52854258 0.027199205 0.63433522 1.2356364e-38
0.5310412 0.022657199 0.63542867 1.2356364e-38
0.52509749 0.034781195 0.63514638 1.2356364e-38
0.52309036 0.044065148 0.6350913 1.2356364e-38
0.53286368 0.045738392 0.63370067 1.2356364e-38
0.52937752 0.050160564 0.63469511 1.2356364e-38
0.53576028 0.054581754 0.63498527 1.2356364e-38
0.54190874 0.058581498 0.63470632 1.2356364e-38
0.54597992 0.061029676 0.63487613 1.2356364e-38
0.5549165 0.066379778 0.63443458 1.2356364e-38
0.54918659 0.075536616 0.63192391 1.2356364e-38
0.55279768 0.078761943 0.63424265 1.2356364e-38
0.56421041 0.071639918 0.63543272 1.2356364e-38
0.58591342 -0.070516065 0.64879376 1.2356364e-38
0.57858425 -0.063003846 0.64480954 1.2356364e-38
0.58215159 -0.067303374 0.64654714 1.2356364e-38
0.57406694 -0.055367284 0.64549536 1.2356364e-38
0.59141058 -0.059305061 0.64494902 1.2356364e-38
0.56796443 -0.044512708 0.64534342 1.2356364e-38
0.57062167 -0.04937169 0.64586437 1.2356364e-38
0.56301779 -0.035436444 0.64519829 1.2356364e-38
0.55738723 -0.025253817 0.64526045 1.2356364e-38
0.54958081 -0.011290056 0.64450455 1.2356364e-38
0.55238038 -0.016244899 0.64473176 1.2356364e-38
0.54621965 -0.0053915051 0.6452238 1.2356364e-38
0.53866655 0.0083221281 0.64474767 1.2356364e-38
0.54183519 0.0025301881 0.64516312 1.2356364e-38
0.53462988 0.015582025 0.6450032 1.2356364e-38
0.52855438 0.027001871 0.64548057 1.2356364e-38
0.53107005 0.022199748 0.6449517 1.2356364e-38
0.52459055 0.03485328 0.64540714 1.2356364e-38
0.52468497 0.045311827 0.64542323 1.2356364e-38
0.53094739 0.04991905 0.64750749 1.2356364e-38
0.52850133 0.0500229 0.64009702 1.2356364e-38
0.53521359 0.053887717 0.64584339 1.2356364e-38
0.54249144 0.058842137 0.64528316 1.2356364e-38
0.54694986 0.061389029 0.64406699 1.2356364e-38
0.55495131 0.065726936 0.64456451 1.2356364e-38
0.56235063 0.068709649 0.6460942 1.2356364e-38
0.56721848 0.071568936 0.64419341 1.2356364e-38
0.5720619 0.072360411 0.64666063 1.2356364e-38
0.58840388 -0.070459679 0.65228629 1.2356364e-38
0.57955778 -0.061327182 0.65560812 1.2356364e-38
0.58382487 -0.065612629 0.65359652 1.2356364e-38
0.57446438 -0.055338975 0.65518337 1.2356364e-38
0.56803817 -0.04434577 0.65449017 1.2356364e-38
0.57294732 -0.048743106 0.65628934 1.2356364e-38
0.56295323 -0.0350229 0.65467107 1.2356364e-38
0.55682814 -0.024910418 0.65523213 1.2356364e-38
0.54941052 -0.011810821 0.65549445 1.2356364e-38
0.55211383 -0.016588489 0.65476918 1.2356364e-38
0.54581529 -0.005303252 0.65505123 1.2356364e-38
0.53883111 0.0074350573 0.65529847 1.2356364e-38
0.54141074 0.0027351554 0.65482384 1.2356364e-38
0.53470606 0.014896411 0.655065 1.2356364e-38
0.52801645 0.026858566 0.65493077 1.2356364e-38
0.53064758 0.022112994 0.6552425 1.2356364e-38
0.52380419 0.034569126 0.65522325 1.2356364e-38
0.52457225 0.043883353 0.65515596 1.2356364e-38
0.53137118 0.049766462 0.65499294 1.2356364e-38
0.52605218 0.052877393 0.65029824 1.2356364e-38
0.53619576 0.053865824 0.65495044 1.2356364e-38
0.54251587 0.058943994 0.65518284 1.2356364e-38
0.54796803 0.062023241 0.65612161 1.2356364e-38
0.553913 0.06489601 0.65342396 1.2356364e-38
0.56521761 0.068029866 0.65477097 1.2356364e-38
0.56979537 0.070462063 0.65098399 1.2356364e-38
0.57420737 0.072300255 0.65055424 1.2356364e-38
0.58779788 -0.071287006 0.66360325 1.2356364e-38
0.59088838 -0.071514793 0.66367006 1.2356364e-38
0.57772422 -0.063077673 0.66740191 1.2356364e-38
0.5816958 -0.068323426 0.66820699 1.2356364e-38
0.57285994 -0.054187927 0.66565466 1.2356364e-38
0.56757146 -0.044428062 0.66525346 1.2356364e-38
0.57285553 -0.046197817 0.66099691 1.2356364e-38
0.55962074 -0.030358689 0.66565758 1.2356364e-38
0.56243658 -0.035280306 0.66480047 1.2356364e-38
0.55646712 -0.024697572 0.66504556 1.2356364e-38
0.54898959 -0.011448963 0.66456997 1.2356364e-38
0.55174172 -0.01632461 0.66483527 1.2356364e-38
0.54568112 -0.0053041484 0.66510725 1.2356364e-38
0.55288243 -0.005495213 0.66466439 1.2356364e-38
0.53901094 0.0069499859 0.66521937 1.2356364e-38
0.5416438 0.0021457563 0.6647079 1.2356364e-38
0.53463078 0.014701651 0.66502661 1.2356364e-38
0.52805513 0.02629168 0.66510534 1.2356364e-38
0.53071928 0.021528203 0.66441131 1.2356364e-38
0.52400738 0.035546739 0.66577154 1.2356364e-38
0.52367878 0.043895423 0.66530114 1.2356364e-38
0.53053713 0.049577173 0.66281855 1.2356364e-38
0.53598219 0.054273218 0.66375029 1.2356364e-38
0.54179561 0.058699775 0.66450346 1.2356364e-38
0.54743785 0.061898287 0.66477573 1.2356364e-38
0.55425984 0.065683104 0.66467935 1.2356364e-38
0.56200176 0.06917806 0.6629777 1.2356364e-38
0.56698531 0.071452022 0.66522521 1.2356364e-38
0.57187182 0.073422357 0.66153854 1.2356364e-38
0.58657205 -0.070997447 0.67574948 1.2356364e-38
0.57839698 -0.061622627 0.67303616 1.2356364e-38
0.58253628 -0.066570573 0.67437756 1.2356364e-38
0.57367814 -0.055051476 0.67448074 1.2356364e-38
0.56748766 -0.044814445 0.67497158 1.2356364e-38
