# .PCD v0.7 - Point Cloud Data file format
VERSION 0.7
FIELDS x y z rgb
SIZE 4 4 4 4
TYPE F F F F
COUNT 1 1 1 1
WIDTH 982
HEIGHT 1
VIEWPOINT 0 0 0 1 0 0 0
POINTS 982
DATA ascii
0.45722321 -0.49666381 0.62174249 1.1155671e-38
0.3930707 -0.46800286 0.62174052 1.1155671e-38
0.55775809 -0.4406161 0.62128675 1.097128e-38
0.58371484 -0.40941688 0.6208663 1.097128e-38
0.51470101 -0.37992769 0.62080353 1.097128e-38
0.51913357 -0.3243708 0.62263995 4.0581211e-39
0.52093321 -0.32831773 0.62562847 2.2142071e-39
0.82654834 -0.3292233 0.62182701 1.1063476e-38
0.51859516 -0.31564152 0.62391621 3.5975115e-39
0.5189293 -0.30451113 0.62599266 2.9521519e-39
0.52006662 -0.30134916 0.62184691 3.2287346e-39
0.51889718 -0.29691434 0.62662184 2.8599577e-39
0.52048177 -0.29414928 0.6242764 3.3205701e-39
0.72793627 -0.2938183 0.62118655 1.097128e-38
0.52117443 -0.28536353 0.62582701 3.0439874e-39
0.51495284 -0.27039054 0.62133598 1.0879084e-38
0.52250081 -0.27540222 0.62596089 3.3205701e-39
0.52406824 -0.26471785 0.62531465 3.5971528e-39
0.86048424 -0.26680401 0.62069237 1.097128e-38
0.51675868 -0.25166887 0.62523538 9.4961527e-39
0.52559441 -0.25461629 0.6255281 4.5190993e-39
0.52697033 -0.24507688 0.6254003 4.9797117e-39
0.52819586 -0.23505402 0.6256007 6.4544648e-39
0.52917016 -0.22635181 0.62610525 6.9157975e-39
0.53065032 -0.22332411 0.62213272 5.2562789e-39
0.52977222 -0.21933377 0.62809741 9.6809237e-39
0.53075355 -0.21486309 0.62658858 8.390552e-39
0.53188568 -0.20447758 0.62638247 6.4548207e-39
0.53332812 -0.19461852 0.62541068 3.228359e-39
0.53525609 -0.1849169 0.62498027 2.951768e-39
0.53802276 -0.17489605 0.62525332 4.3235102e-39
0.53984547 -0.16949284 0.62560922 5.6999399e-39
0.54184389 -0.16445294 0.62501943 5.7928571e-39
0.5560537 -0.16113724 0.62274754 2.0294571e-39
0.56352681 -0.16302222 0.62317693 2.306414e-39
0.57145238 -0.16494115 0.62144226 2.0298215e-39
0.78498435 -0.16425815 0.62139159 1.0879084e-38
0.5453229 -0.15895031 0.62290967 4.4203862e-39
0.55279362 -0.15951601 0.62072134 1.7528618e-39
0.56046391 -0.15841079 0.62337834 1.0879084e-38
0.39645734 -0.13832621 0.62076861 1.0879084e-38
0.82376575 -0.13640127 0.62119067 1.0879084e-38
0.52962941 -0.080780372 0.62737536 1.1708842e-38
0.53088397 -0.081841677 0.62553823 1.1708842e-38
0.51896143 -0.07042776 0.62491357 8.9429761e-39
0.52428257 -0.075644173 0.62543702 1.0418103e-38
0.67153221 -0.074403115 0.62109971 1.0879084e-38
0.50881666 -0.060098238 0.62474644 8.9429761e-39
0.51390666 -0.065203689 0.62547702 8.9429761e-39
0.47439224 -0.051299915 0.62097108 1.0969119e-38
0.50459391 -0.054757927 0.62577468 1.0510302e-38
0.49792242 -0.042831518 0.62657362 1.1616285e-38
0.50094479 -0.047950953 0.62460226 1.1616648e-38
0.49763405 -0.036622446 0.6263001 1.1524452e-38
0.50206077 -0.032529112 0.62381631 1.1524091e-38
0.50713271 -0.02708978 0.62550336 1.1432254e-38
0.51258528 -0.022128094 0.6249364 1.1431894e-38
0.5179379 -0.01754507 0.6250394 1.1524089e-38
0.52323401 -0.013008502 0.62473458 1.0138626e-38
0.51851672 -0.0086179674 0.62565678 1.1523369e-38
0.52804792 -0.0087571023 0.62548798 7.5520865e-39
0.53456682 -0.0032253659 0.62522352 7.366975e-39
0.53937787 0.0010455921 0.62628871 6.6279624e-39
0.54452074 0.0056761326 0.62517244 7.3673351e-39
0.5548625 0.015046279 0.62514317 6.9978281e-39
0.56006718 0.019506874 0.62498957 7.2747779e-39
0.56595635 0.024786621 0.62569946 6.9974666e-39
0.57102853 0.029546032 0.62479788 1.1153864e-38
0.57599074 0.03410222 0.62578416 1.1523366e-38
0.5826326 0.038927808 0.62447214 1.142973e-38
0.59421521 0.036259215 0.62278265 8.7247323e-39
0.58821303 0.042110007 0.62492877 1.1337176e-38
0.59222806 0.044173781 0.62427884 1.12439e-38
0.67505026 0.043261979 0.62044549 1.0786889e-38
0.37784335 0.059996098 0.62279254 1.0786889e-38
0.55462831 0.060676657 0.62022483 1.0786889e-38
0.56014997 0.085188434 0.62058455 1.0786889e-38
0.34935066 0.1106309 0.6217916 1.0786889e-38
0.45438939 0.19796063 0.62859607 3.8642655e-39
0.44741502 0.20646918 0.62667453 4.1426558e-39
0.45140696 0.20158951 0.62650746 3.9571828e-39
0.43862972 0.21849649 0.62625152 4.2344927e-39
0.442366 0.21335283 0.6264441 4.2348529e-39
0.81481993 0.21787444 0.62169027 1.0786889e-38
0.43431473 0.22479355 0.62709403 4.0493798e-39
0.42906079 0.23431022 0.628766 3.77243e-39
0.43092036 0.23071146 0.62587863 4.1419356e-39
0.55754763 0.26378393 0.62177312 1.0694693e-38
0.63693297 0.29108867 0.62122822 1.0694693e-38
0.36558539 0.30353025 0.62111264 1.0694693e-38
0.394494 0.31565934 0.62146395 1.0694693e-38
0.65091342 0.34807488 0.62082964 1.0694693e-38
0.46046484 0.36259601 0.62214863 1.0694693e-38
0.35241216 0.40069205 0.62091374 1.0602497e-38
0.87016201 0.42999417 0.6206618 1.0602497e-38
0.35689405 0.45397118 0.62057954 1.0694693e-38
0.52362287 -0.3306455 0.63060564 1.3840653e-39
0.51729333 -0.32303819 0.63735515 2.9517974e-39
0.52424788 -0.32687724 0.63606071 5.5328728e-39
0.51657438 -0.31465015 0.63627076 2.8599605e-39
0.51874608 -0.30508003 0.63482553 2.8599577e-39
0.52025771 -0.30048674 0.63832831 2.8599577e-39
0.51982105 -0.29749355 0.63064677 2.8599577e-39
0.52115148 -0.2946642 0.6353718 2.8599577e-39
0.52250946 -0.28497705 0.63493186 2.8599577e-39
0.52390337 -0.27475134 0.63498068 3.1365404e-39
0.53104931 -0.27820531 0.6371122 2.8599577e-39
0.52513653 -0.26509982 0.63486326 7.1923858e-39
0.52654946 -0.25512362 0.63500571 1.1524457e-38
0.52792537 -0.2447257 0.63532132 1.1616651e-38
0.52869296 -0.2352871 0.63501751 1.1708845e-38
0.52953386 -0.22546041 0.63423443 1.1708845e-38
0.53007197 -0.22079468 0.63645458 1.1801041e-38
0.52999431 -0.21911673 0.63241744 1.1801041e-38
0.5307411 -0.21469428 0.63571435 1.1801041e-38
0.53200084 -0.2051177 0.63493723 1.1708845e-38
0.5336324 -0.19507399 0.63505489 7.7451952e-39
0.53596431 -0.18506204 0.63508707 2.8599577e-39
0.54774815 -0.18552822 0.63860404 1.0324829e-38
0.53845149 -0.17545544 0.63497758 3.0425441e-39
0.54030544 -0.17061545 0.63697511 2.9510701e-39
0.54228336 -0.1648619 0.63509446 5.1467871e-39
0.54440963 -0.15956911 0.6353119 6.2448278e-39
0.52924973 -0.080484837 0.63072038 1.5212275e-38
0.53322017 -0.081596732 0.63209635 1.4378913e-38
0.51947933 -0.071421124 0.63393301 8.942616e-39
0.5249691 -0.076077178 0.63355386 1.1984349e-38
0.50970936 -0.061021708 0.63600481 8.9422558e-39
0.51424032 -0.065879948 0.63495022 8.9418957e-39
0.5051263 -0.055250421 0.63504982 1.032555e-38
0.49857804 -0.04350163 0.63464874 1.1522649e-38
0.50108957 -0.048221942 0.63516581 1.1616286e-38
0.49740535 -0.036873735 0.63546985 1.1150628e-38
0.50207692 -0.031721901 0.63505018 1.1149908e-38
0.50696206 -0.02728379 0.63498563 1.1057712e-38
0.51293576 -0.022054367 0.63514638 1.0410542e-38
0.51748067 -0.018105425 0.63442343 1.0595293e-38
0.52310765 -0.013230501 0.63414341 8.9339587e-39
0.52853811 -0.0085565057 0.63452584 6.3456175e-39
0.53407478 -0.0038412479 0.63483292 6.6204066e-39
0.53865242 0.00011765305 0.63518655 6.8033601e-39
0.54481101 0.0057121636 0.63475627 6.7118833e-39
0.55472964 0.014611353 0.63468689 6.8033601e-39
0.56034207 0.019525334 0.63520837 7.0777904e-39
0.55491066 0.02549964 0.63581699 1.0786889e-38
0.5658024 0.024442904 0.63503498 7.3547388e-39
0.57127362 0.029495429 0.6341275 9.8487222e-39
0.57614428 0.033705175 0.63448119 1.0218228e-38
0.58282739 0.038376156 0.63586056 9.7514875e-39
0.58688414 0.042118754 0.63583332 9.8440446e-39
0.59190303 0.045677584 0.63568956 9.7507686e-39
0.45527768 0.19719224 0.6351409 5.3459032e-39
0.4624148 0.19447216 0.63505518 5.6192349e-39
0.44715679 0.20573461 0.63496339 4.8849264e-39
0.45077413 0.20083332 0.63505393 5.0693205e-39
0.43865812 0.21832705 0.63430429 4.6998107e-39
0.44229189 0.21327271 0.63491416 4.9771221e-39
0.43396243 0.22492293 0.63542366 5.0700408e-39
0.42852631 0.2355435 0.63555157 5.1625993e-39
0.43045145 0.23060396 0.63519561 4.8852866e-39
0.42830995 0.24261943 0.63580579 5.4395464e-39
0.4314459 0.24767751 0.63774687 5.7168577e-39
0.51818424 -0.32220966 0.64410406 3.2287472e-39
0.52176547 -0.32713735 0.64225042 2.7677606e-39
0.51771933 -0.31409732 0.64533252 2.8599605e-39
0.51920944 -0.30709839 0.64397776 2.8599577e-39
0.52074575 -0.30287999 0.645998 2.8599577e-39
0.52257538 -0.29497492 0.64497381 2.8599577e-39
0.52418786 -0.28497505 0.6449945 2.8599577e-39
0.52518606 -0.27496895 0.64496058 4.8875203e-39
0.52643859 -0.26499504 0.64488262 1.1616651e-38
0.52782416 -0.25517794 0.64511436 1.1708845e-38
0.52915215 -0.24527556 0.64533144 1.1801041e-38
0.52963799 -0.23572204 0.64267516 1.1801041e-38
0.53040946 -0.23436199 0.64710921 1.1801041e-38
0.52990651 -0.22715507 0.64081842 1.1801041e-38
0.53076899 -0.22482899 0.64550924 1.1801041e-38
0.53145224 -0.21516684 0.64537835 1.1801041e-38
0.53264874 -0.20489863 0.64478558 1.1801041e-38
0.53457963 -0.19504164 0.64475787 1.1247872e-38
0.53670013 -0.18501434 0.64479566 3.1365404e-39
0.52918744 -0.17804936 0.6452533 1.0049699e-38
0.53888029 -0.17694812 0.64478803 2.8599577e-39
0.54077947 -0.17220384 0.64575636 2.8599577e-39
0.54376721 -0.16486584 0.64464593 2.9514316e-39
0.55199623 -0.16132392 0.64254975 3.5053467e-39
0.54578811 -0.15952474 0.64296043 4.5064764e-39
0.52963948 -0.08074908 0.64801049 9.0945952e-39
0.53314894 -0.08327426 0.64593703 9.4676993e-39
0.51846135 -0.070534065 0.64506638 8.7355363e-39
0.52399284 -0.075476319 0.64366108 9.2901506e-39
0.50973797 -0.060487714 0.64423639 8.7355363e-39
0.514054 -0.065492228 0.64470315 8.7344559e-39
0.50573355 -0.054997023 0.64412248 8.9156059e-39
0.49876654 -0.042714998 0.64532113 9.1921928e-39
0.50162154 -0.047185838 0.64252591 9.1918327e-39
0.49818057 -0.037293602 0.64538896 9.0971161e-39
0.50255376 -0.032461762 0.64582473 8.9084033e-39
0.50734419 -0.027466564 0.6453796 7.8060172e-39
0.51231337 -0.022816671 0.64589936 6.6121557e-39
0.49935502 -0.019850247 0.64909703 7.1753838e-39
0.51741111 -0.01830627 0.64478403 6.3370094e-39
0.52351451 -0.012958447 0.64455724 6.7958267e-39
0.52801549 -0.0083160996 0.64488894 8.7290539e-39
0.53380805 -0.0038581693 0.64519697 8.7243721e-39
0.53849721 0.00028454201 0.64498729 8.7243721e-39
0.54494739 0.006129317 0.64499968 8.7243721e-39
0.54876536 0.011813408 0.64816028 8.7243721e-39
0.55483067 0.015033217 0.64515704 8.7243721e-39
0.56004792 0.019539369 0.64243585 8.7243721e-39
0.56580693 0.024746506 0.6450724 8.7243721e-39
0.5710516 0.029431779 0.64529389 8.7243721e-39
0.57574999 0.033387959 0.64438504 8.7243721e-39
0.58151162 0.03864105 0.64641988 8.7250924e-39
0.58686143 0.042894334 0.64623886 8.9109242e-39
0.59122646 0.04632324 0.64602292 9.0038401e-39
0.45580858 0.19763918 0.64303458 6.5509582e-39
0.46147805 0.19477066 0.64476615 7.1959633e-39
0.44736987 0.2059357 0.64462817 6.1821743e-39
0.4510552 0.20104361 0.64631253 6.2743727e-39
0.43889251 0.21826282 0.64485681 6.1821757e-39
0.44247073 0.21321063 0.6453982 6.1821757e-39
0.43414623 0.22487515 0.64509028 6.1821757e-39
0.42851451 0.23538622 0.64491349 6.1821757e-39
0.43025702 0.2306971 0.64697587 6.1821757e-39
0.42889953 0.24307194 0.643848 6.1818114e-39
0.43123999 0.24723522 0.64500791 6.5476946e-39
0.43465275 0.25124508 0.64561391 6.6388056e-39
0.51240665 -0.33618838 0.65730542 1.097128e-38
0.51831383 -0.32378209 0.65267992 3.0443573e-39
0.52091819 -0.32448786 0.65668774 3.0439944e-39
0.51881826 -0.31611404 0.65135109 3.5975437e-39
0.52127314 -0.31474072 0.65512878 3.2287528e-39
0.51945072 -0.30983979 0.65043616 2.8599577e-39
0.5217306 -0.30519894 0.65427977 3.136553e-39
0.52377111 -0.29506665 0.65501195 2.8599577e-39
0.52530831 -0.28473732 0.65516275 2.8599577e-39
0.52631438 -0.27526093 0.65494394 7.7451938e-39
0.52753001 -0.26514706 0.65520948 1.0047879e-38
0.52882874 -0.25484136 0.65474027 9.5876224e-39
0.53002602 -0.25041348 0.65955245 8.0188534e-39
0.52962226 -0.24760622 0.65328181 9.4025109e-39
0.53037214 -0.24392448 0.65609759 8.5723887e-39
0.53128892 -0.23490287 0.6549319 8.9411698e-39
0.53229725 -0.22490686 0.65503281 8.8486127e-39
0.5330478 -0.21498361 0.65556848 9.6787349e-39
0.53376842 -0.2050772 0.65496975 1.1432257e-38
0.53494126 -0.19476973 0.65525252 8.7593359e-39
0.53707701 -0.18485634 0.65496081 2.8599577e-39
0.54902095 -0.18491866 0.65762687 3.7746805e-39
0.5387907 -0.17798199 0.65486854 2.8599577e-39
0.54095358 -0.17300563 0.65504158 2.8599577e-39
0.54402483 -0.1646793 0.65485311 2.8599577e-39
0.54901838 -0.15899745 0.65602708 2.8599577e-39
0.55233425 -0.15704262 0.65820283 2.8599577e-39
0.53346592 -0.082386225 0.65161484 9.2793466e-39
0.51911891 -0.071438342 0.65495294 8.7243721e-39
0.52348411 -0.075606495 0.65418899 8.7243721e-39
0.5099414 -0.063865222 0.65569687 8.828092e-39
0.51402164 -0.065801769 0.65530467 8.7243721e-39
0.50472462 -0.055119645 0.65541518 8.7247323e-39
0.49835056 -0.044396423 0.65525246 9.6618142e-39
0.49922562 -0.03920684 0.65041196 9.1853503e-39
0.50299746 -0.034805391 0.65416116 7.9896882e-39
0.50807714 -0.027419861 0.65562618 6.5203202e-39
0.51261562 -0.022507697 0.6549558 6.4284847e-39
0.51807964 -0.018036878 0.65403312 6.7958267e-39
0.52391779 -0.012930908 0.65449113 7.8060172e-39
0.52872205 -0.0083286399 0.65559369 8.7243721e-39
0.5338195 -0.0034965018 0.65460145 8.7243721e-39
0.53893048 0.0012458507 0.65516108 8.7243721e-39
0.54476219 0.0064833015 0.65531832 8.7243721e-39
0.55516058 0.015708549 0.6548723 8.7243721e-39
0.5647555 0.024164075 0.65511048 8.7243721e-39
0.57057816 0.029373184 0.65528446 8.7243721e-39
0.57593924 0.034175981 0.65489441 8.7243721e-39
0.58142138 0.039034121 0.65453929 8.7243721e-39
0.58640069 0.043392207 0.6549316 8.7243721e-39
0.45497963 0.19694333 0.6554932 6.9190163e-39
0.46497163 0.19452618 0.65482491 7.6536848e-39
0.47029102 0.19518846 0.65972519 5.7161305e-39
0.44747689 0.20639849 0.65478998 6.2743699e-39
0.45091063 0.20115888 0.65479457 6.7349851e-39
0.43910635 0.21841328 0.65487933 6.1821757e-39
0.44256735 0.21362133 0.65501446 6.1821757e-39
0.42094412 0.2248296 0.65320247 1.0694693e-38
0.43459353 0.22486138 0.65466297 6.5505953e-39
0.4290176 0.23651505 0.65337747 6.3665656e-39
0.43079248 0.23246464 0.65570045 6.7346264e-39
0.42843896 0.24290559 0.65529209 6.3658425e-39
0.4317888 0.24823633 0.65621316 5.7172137e-39
0.43563834 0.25158432 0.6537286 6.36186e-39
0.52261651 -0.33046162 0.66464925 3.1365516e-39
0.51962197 -0.32420176 0.66606593 2.2142099e-39
0.52244294 -0.32960314 0.66753244 3.1365516e-39
0.51981342 -0.31617734 0.66485977 2.8599577e-39
0.5201326 -0.31335804 0.6674903 2.8599577e-39
0.51989841 -0.30897585 0.66319567 2.8599577e-39
0.52134693 -0.30426911 0.66551971 2.8599577e-39
0.52411896 -0.29517695 0.6652621 2.8599577e-39
0.52650148 -0.2853303 0.66500437 4.3347122e-39
0.53159964 -0.28142917 0.66447258 4.9800746e-39
0.52766263 -0.27475369 0.66467559 1.1155675e-38
0.52882189 -0.26522422 0.66515201 7.186206e-39
0.52960134 -0.25716582 0.6633243 7.0018134e-39
0.53045857 -0.25319937 0.66641825 5.892219e-39
0.53141606 -0.2446962 0.66492122 5.8922176e-39
0.53257412 -0.23510392 0.66509855 5.8922176e-39
0.53369373 -0.22500524 0.66496408 6.2620833e-39
0.53472799 -0.21499783 0.66538173 6.817062e-39
0.5432421 -0.21008103 0.6623016 1.115495e-38
0.53525931 -0.20503953 0.66528088 8.5716642e-39
0.53603715 -0.19525056 0.66505468 1.0971647e-38
0.53811198 -0.18490468 0.6642527 3.1365404e-39
0.53957611 -0.17873633 0.66532344 2.8599577e-39
0.54118747 -0.17366785 0.66521639 2.8599577e-39
0.54463065 -0.16494766 0.66537338 2.8599577e-39
0.54904985 -0.15857685 0.66622394 2.8599577e-39
0.55395442 -0.15706801 0.66363621 2.9521603e-39
0.56238139 -0.15817671 0.66467214 3.1365544e-39
0.52893573 -0.081289291 0.66504395 8.7243721e-39
0.53139019 -0.08368849 0.66559792 8.7243721e-39
0.51900148 -0.071018212 0.66578674 8.7243721e-39
0.52375209 -0.075986445 0.66444874 8.7243721e-39
0.50958329 -0.060689956 0.66470152 8.7243721e-39
0.51397353 -0.065750092 0.66507196 8.7247323e-39
0.50431043 -0.054725874 0.66482466 8.9998786e-39
0.49812537 -0.045062978 0.66424257 9.7363633e-39
0.50049287 -0.046581358 0.66778302 1.0101905e-38
0.49852681 -0.037238475 0.66647243 9.0917141e-39
0.50217509 -0.03149667 0.66699255 5.8774718e-39
0.50661999 -0.027202658 0.66610903 6.7039912e-39
0.51258832 -0.022174917 0.66434985 6.4284847e-39
0.51770574 -0.017678548 0.66498107 7.4386752e-39
0.5233075 -0.012607256 0.66537386 8.7243721e-39
0.52870053 -0.0077345455 0.66480583 8.7243721e-39
0.53371131 -0.0032347729 0.66502726 8.7243721e-39
0.53874737 0.0012992288 0.66526759 8.7243721e-39
0.5445683 0.0065571284 0.66443598 8.7243721e-39
0.54845613 0.010032207 0.66603655 8.7243721e-39
0.55487984 0.015585971 0.66536289 8.7243721e-39
0.5652191 0.02470482 0.66446781 8.7243721e-39
0.5702467 0.029317319 0.66493803 8.7243721e-39
0.57555586 0.034158427 0.66540813 8.7243721e-39
0.58147335 0.039212801 0.66631317 8.9080431e-39
0.58655524 0.042964213 0.66515416 8.9998786e-39
0.59288096 0.045552574 0.66771901 9.4590561e-39
0.45004818 0.18816768 0.66738778 5.2529845e-39
0.45601058 0.19671787 0.66497582 7.0112105e-39
0.46088031 0.19404286 0.66792965 8.9455068e-39
0.44745925 0.2062113 0.6646769 7.563664e-39
0.4510144 0.20122851 0.66513574 7.0112119e-39
0.43899217 0.21852641 0.66483414 3.2341016e-39
0.44261029 0.21343784 0.66519278 3.4184914e-39
0.43423352 0.22488911 0.66519582 5.7219234e-39
0.42884156 0.23631065 0.66570002 7.1034061e-39
0.43044528 0.23094447 0.66489446 8.1164734e-39
0.42911449 0.24240573 0.66518211 6.1821743e-39
0.43174261 0.2471042 0.66390193 5.3487941e-39
0.43678558 0.25266898 0.6648885 5.9012406e-39
0.51990253 -0.32428402 0.67162216 2.3060468e-39
0.52061516 -0.3238847 0.67618489 2.3986082e-39
0.52033448 -0.3150515 0.67450714 2.8599577e-39
0.52178538 -0.30498454 0.67477959 2.8599577e-39
0.52478361 -0.29487136 0.67491305 2.8599577e-39
0.52732587 -0.28515211 0.6749016 9.9575064e-39
0.52862906 -0.27524278 0.67511994 1.1708845e-38
0.52952695 -0.26615971 0.67340165 7.6464625e-39
0.53036982 -0.26280877 0.67688513 7.3698742e-39
0.53115022 -0.25511989 0.67498547 5.8914988e-39
0.53254163 -0.24538627 0.67489505 5.983693e-39
0.52501792 -0.23157284 0.67946649 7.009435e-39
0.53406513 -0.23497261 0.67491591 5.8914988e-39
0.5354268 -0.22484492 0.67496991 5.983693e-39
0.53629911 -0.21520591 0.67480904 5.983693e-39
0.53686595 -0.20512192 0.67489952 7.7386582e-39
0.53753316 -0.19482328 0.67540842 1.1708845e-38
0.53838521 -0.18526247 0.67451739 3.9659339e-39
0.54030871 -0.18173344 0.67866343 2.8599577e-39
0.53964889 -0.1791179 0.67134392 2.8599577e-39
0.54236931 -0.17501198 0.67543739 2.8599577e-39
0.54664195 -0.1651178 0.6751278 2.8599577e-39
0.55154574 -0.16030933 0.67990071 3.2316283e-39
0.54946929 -0.15878065 0.67510933 2.8599577e-39
0.55045933 -0.15676108 0.67586911 2.8599577e-39
0.54604131 -0.14796498 0.67275494 2.9528764e-39
0.52892852 -0.081225872 0.67378813 9.4709391e-39
0.53226364 -0.08382912 0.6748544 9.8454838e-39
0.5190866 -0.071223646 0.67354667 8.8241306e-39
0.52400565 -0.076416813 0.6754691 9.7522091e-39
0.50876927 -0.060116291 0.67247331 8.8183684e-39
0.5138219 -0.06560082 0.67516464 8.9210079e-39
0.50426942 -0.05485877 0.67512351 9.474902e-39
0.51462877 -0.056860391 0.67170405 1.0778603e-38
0.49694416 -0.044495933 0.67685699 9.578982e-39
0.49857995 -0.038010653 0.67409182 6.0647441e-39
0.50264424 -0.033300322 0.67414451 6.7958267e-39
0.50774789 -0.027013106 0.67393321 6.2448137e-39
0.51274937 -0.021817224 0.6746462 7.1631687e-39
0.51765054 -0.017342275 0.67555887 8.6325366e-39
0.52277321 -0.012736405 0.6746608 8.7243721e-39
0.5276742 -0.0083671743 0.67464739 8.7243721e-39
0.53359336 -0.003021644 0.6756444 8.7243721e-39
0.53884262 0.0016714098 0.67447037 8.7243721e-39
0.54388624 0.006214295 0.67474908 8.7243721e-39
0.54880923 0.010652568 0.6764068 8.7243721e-39
0.55488592 0.015865432 0.67469925 8.7243721e-39
0.55492425 0.029420134 0.67582577 1.0050837e-38
0.56471103 0.024414256 0.67465979 8.7243721e-39
0.57017517 0.029258417 0.67541516 8.7243721e-39
0.57520217 0.033983462 0.67523575 8.7243721e-39
0.58061856 0.039068956 0.67644119 8.7243721e-39
0.58326852 0.041522712 0.67828721 8.7243721e-39
0.45586747 0.19691254 0.67518538 7.6558568e-39
0.46411145 0.19410373 0.67351049 7.7462434e-39
0.44751251 0.20638143 0.67519855 6.1814582e-39
0.45108271 0.20141678 0.67502481 6.4584011e-39
0.43896294 0.21869312 0.67513758 2.5826197e-39
0.44259545 0.21377599 0.67478758 2.9510379e-39
0.43435362 0.22513601 0.6750102 4.3364835e-39
0.44373953 0.22937106 0.67186695 4.509272e-39
0.4297207 0.23587713 0.67321491 6.2743699e-39
0.43055719 0.23298331 0.6755361 6.1821757e-39
0.42941552 0.24307086 0.67514771 6.366204e-39
0.43200937 0.24808295 0.67634177 6.3629432e-39
0.43529561 0.25241986 0.6750012 6.5473359e-39
0.52452767 -0.33061889 0.68540585 1.3837052e-39
0.52285773 -0.32470018 0.68423897 2.2142099e-39
0.52095103 -0.31501341 0.68425477 2.8599577e-39
0.5219025 -0.30512759 0.68519109 2.8599577e-39
0.52497679 -0.29513597 0.68494511 2.8599577e-39
0.52795851 -0.28504905 0.68502861 1.0602869e-38
0.52941626 -0.27567068 0.68484038 1.1801041e-38
0.53009832 -0.27102363 0.68615764 1.1801041e-38
0.52998596 -0.26920938 0.68054694 1.1708845e-38
0.53083885 -0.26506841 0.68548727 1.1708845e-38
0.52677929 -0.25876826 0.68134505 6.3626349e-39
0.53210568 -0.25484371 0.68479109 1.0324104e-38
0.53359216 -0.24478568 0.68507695 9.2163134e-39
0.53505093 -0.23525211 0.68494469 8.8471693e-39
0.5365802 -0.22532171 0.68496633 9.1241163e-39
0.53785455 -0.21463308 0.68491828 9.9549616e-39
0.53832972 -0.20500208 0.68463218 1.1524094e-38
0.53887212 -0.1953727 0.68499607 1.1063483e-38
0.53935802 -0.18687576 0.68410033 4.6109376e-39
0.54045588 -0.1827376 0.6866312 2.8599577e-39
0.54223102 -0.17518057 0.68582219 2.8599577e-39
0.54532397 -0.16498223 0.68680608 2.8599577e-39
0.54870564 -0.15858327 0.68494749 2.8599577e-39
0.55393732 -0.156573 0.68620616 2.9521575e-39
0.52877426 -0.081011198 0.68628329 1.2722633e-38
0.53314435 -0.083746754 0.6865322 1.3921539e-38
0.51827645 -0.071277991 0.68527538 8.9418957e-39
0.52355593 -0.076223202 0.6847645 1.0878003e-38
0.50899166 -0.060811989 0.68512702 8.9418957e-39
0.51320708 -0.065660253 0.68564779 8.9422558e-39
0.50443357 -0.055185448 0.68514979 1.0694692e-38
0.49774221 -0.044276912 0.68377048 1.1431535e-38
0.50077569 -0.048621345 0.68564487 1.1616286e-38
0.49785176 -0.03703659 0.6870892 8.5695076e-39
0.50227982 -0.03246652 0.68585449 9.0193258e-39
0.5075472 -0.026554994 0.68524021 8.0919661e-39
0.51239669 -0.021761199 0.68446648 9.1911124e-39
0.51700616 -0.017579915 0.68589085 9.657131e-39
0.52255946 -0.012618035 0.68425351 9.2847472e-39
0.52697444 -0.008021621 0.68491071 1.0027357e-38
0.53339499 -0.0028334346 0.68492126 6.8019812e-39
0.53851521 0.0017255221 0.68446618 6.3417289e-39
0.54362273 0.006349436 0.68537194 5.7003294e-39
0.5488131 0.010991408 0.68495059 5.7918048e-39
0.55507702 0.016468639 0.68448144 6.5286397e-39
0.56512427 0.025020439 0.68543166 1.0217509e-38
0.57064641 0.028475262 0.68701446 9.3776645e-39
0.57561994 0.034337193 0.68477976 1.0216789e-38
0.58053648 0.038950302 0.68546462 1.040406e-38
0.58558542 0.043127038 0.68532968 1.0589891e-38
0.44901624 0.19881123 0.68419987 6.1821757e-39
0.45631197 0.19749413 0.68468285 6.8271836e-39
0.46265694 0.19420272 0.68551642 7.9320822e-39
0.44738084 0.20675422 0.68484592 7.010493e-39
0.45121658 0.20148093 0.68510866 7.3796329e-39
0.43901044 0.2185338 0.6851958 2.8577646e-39
0.44250417 0.21369305 0.68492454 3.3183757e-39
0.43480203 0.22483158 0.68477839 4.9807655e-39
0.42868423 0.23647127 0.68544465 8.2086677e-39
0.43102771 0.23163688 0.68504035 8.2086691e-39
0.42881137 0.24159639 0.68373477 6.4569493e-39
0.43206939 0.24635184 0.68507963 6.0859948e-39
0.43512377 0.25081965 0.68622893 6.2700245e-39
0.44116324 0.25469464 0.68641555 6.638807e-39
0.52201271 -0.32397974 0.69549119 2.6755622e-39
0.52132088 -0.31441575 0.69532138 2.8599577e-39
0.52321047 -0.30483124 0.69472736 2.8599577e-39
0.52596033 -0.29487321 0.69484538 2.8599577e-39
0.52857995 -0.28495482 0.69491261 9.4043382e-39
0.5296942 -0.27764148 0.69272828 1.1801041e-38
0.53067046 -0.27380994 0.69575852 1.1801041e-38
0.53183317 -0.26485303 0.69509834 1.1708845e-38
0.53317404 -0.25520405 0.69494933 1.1801041e-38
0.53460103 -0.24508809 0.69501925 1.1801041e-38
0.53603739 -0.23469743 0.69501185 1.1801041e-38
0.53735834 -0.22485976 0.69503778 1.1801041e-38
0.53863841 -0.21538226 0.69519013 1.1708845e-38
0.53951252 -0.20590012 0.69342083 1.1708845e-38
0.54033715 -0.20306936 0.69746643 8.3905576e-39
0.53978586 -0.19621459 0.69104838 1.0141896e-38
0.54066789 -0.19474426 0.69580507 5.8094667e-39
0.54137063 -0.18491672 0.69503081 2.8599577e-39
0.54372168 -0.17488092 0.6943897 2.8599577e-39
0.54734397 -0.16487703 0.69378573 2.8599577e-39
0.54952198 -0.15942134 0.69456035 2.8599577e-39
0.55161315 -0.15783551 0.69606256 2.8599577e-39
0.56428647 -0.15806083 0.69049871 3.0443545e-39
0.53588265 -0.082478099 0.69399774 1.576545e-38
0.54133046 -0.082355924 0.69845152 1.9729498e-38
0.51870644 -0.07135497 0.69428521 8.9429761e-39
0.52394688 -0.075895101 0.69521755 1.1985429e-38
0.49785152 -0.063674457 0.69970798 7.5323114e-39
0.5091098 -0.060228009 0.69389343 8.9429761e-39
0.51417422 -0.065393023 0.69608694 9.5883455e-39
0.557778 -0.066484936 0.69990754 1.9268522e-38
0.50468147 -0.054832734 0.69527757 1.0694692e-38
0.5104757 -0.059943438 0.69956952 1.0325911e-38
0.53349406 -0.053825751 0.69819236 1.4197765e-38
0.49786064 -0.044217546 0.69583052 1.1432618e-38
0.50010973 -0.041350201 0.69888908 1.0880165e-38
0.56862921 -0.047173902 0.69414264 1.6133155e-38
0.49882731 -0.038560532 0.69367015 8.9418859e-39
0.50262356 -0.034666225 0.69566065 1.1524089e-38
0.52494985 -0.034937035 0.69814497 1.5304112e-38
0.50750422 -0.027529638 0.6952278 1.2353491e-38
0.51226872 -0.022716288 0.69590664 1.2538241e-38
0.51749223 -0.017732525 0.69499546 1.1985068e-38
0.52323407 -0.012748816 0.69585294 1.2077265e-38
0.55096334 -0.013350933 0.69467032 4.6008426e-39
0.5279054 -0.008345155 0.69528389 1.2169822e-38
0.53374988 -0.0033908568 0.69584221 4.8875245e-39
0.53869528 0.0016888089 0.69436574 2.951433e-39
0.54457355 0.0058661546 0.69640309 2.8599563e-39
0.54881966 0.010730694 0.69343317 2.8595975e-39
0.55521083 0.015221203 0.69580913 4.6113019e-39
0.56098664 0.019248966 0.69838029 1.0602497e-38
0.56555289 0.024084998 0.69536972 1.0786887e-38
0.57114387 0.028351858 0.69700068 1.0233714e-38
0.5760116 0.033407837 0.69448531 1.0509939e-38
0.58238333 0.037967235 0.6958946 9.9571266e-39
0.58702481 0.042057771 0.69394279 1.050994e-38
0.59137475 0.044507544 0.69587594 9.7727354e-39
0.45622694 0.19765736 0.69530153 6.2732867e-39
0.46344545 0.19438663 0.69499159 8.2083033e-39
0.47015172 0.19674614 0.69931889 8.9447824e-39
0.44769293 0.20662443 0.69461036 6.0899801e-39
0.45133951 0.20177951 0.69547397 6.0899801e-39
0.43899664 0.2190434 0.69443029 5.0747603e-39
0.44264185 0.21390988 0.69542962 5.536093e-39
0.43489084 0.22509666 0.69527185 5.8130372e-39
0.4292089 0.23660834 0.69458538 6.1818128e-39
0.43070099 0.23188971 0.69629294 6.0899787e-39
0.42948151 0.24116616 0.69433123 6.4573136e-39
0.43211412 0.24574523 0.6958186 5.994888e-39
0.43730983 0.25166327 0.69658357 5.7168521e-39
0.4421038 0.25469768 0.69791508 5.624295e-39
0.52661967 -0.33022267 0.70771796 1.3837052e-39
0.52301913 -0.32458761 0.70550704 2.2142127e-39
0.52275938 -0.31517285 0.70539844 2.8599577e-39
0.52393478 -0.30506396 0.70493168 2.8599577e-39
0.52648491 -0.2950668 0.7049824 2.8603164e-39
0.5288673 -0.28597414 0.70466638 7.561883e-39
0.53030699 -0.28123513 0.70658237 1.069758e-38
0.53153884 -0.2751807 0.70500755 1.106528e-38
0.53320086 -0.2651079 0.70491087 1.1157116e-38
0.53463143 -0.25510198 0.70479584 1.1341146e-38
0.53601396 -0.24494377 0.70517492 1.1341146e-38
0.53708464 -0.23521852 0.70479357 1.1617011e-38
0.53828526 -0.22510529 0.70501345 1.1617011e-38
0.53935522 -0.21572059 0.70434684 7.4689699e-39
0.54025787 -0.21189809 0.70818806 2.8603164e-39
0.53989762 -0.20937307 0.70113498 7.0079973e-39
0.54084873 -0.20479099 0.70504415 3.1365404e-39
0.54202068 -0.19496906 0.70500237 2.8599577e-39
0.54357976 -0.18480735 0.70514566 2.8599577e-39
0.54558432 -0.1749097 0.70503169 2.8599577e-39
0.54768848 -0.1651489 0.70485616 2.8599577e-39
0.55039972 -0.16094273 0.70730889 2.8599577e-39
0.55489659 -0.15749359 0.70555598 2.8599577e-39
0.56032932 -0.15484934 0.70906502 2.8599577e-39
0.53492159 -0.08098796 0.70180315 1.9176691e-38
0.52620596 -0.074344814 0.70269859 1.5673257e-38
0.53444922 -0.074911639 0.70568454 1.6963633e-38
0.54298031 -0.072911829 0.70603555 1.871499e-38
0.55068845 -0.072066799 0.70139378 1.8622791e-38
0.51752442 -0.063585348 0.70223862 1.1801041e-38
0.52452987 -0.065345071 0.70528334 1.4659104e-38
0.53522724 -0.064936399 0.70668066 1.8991937e-38
0.54413152 -0.064368464 0.70675671 1.9268524e-38
0.55423701 -0.064270541 0.70378101 1.696291e-38
0.5615344 -0.061480053 0.70265949 1.6133155e-38
0.50675732 -0.053093906 0.70321852 1.281519e-38
0.51421106 -0.055385944 0.7056092 1.3552758e-38
0.52503216 -0.054828063 0.70640326 1.5212279e-38
0.53533322 -0.055057112 0.70608044 1.7793754e-38
0.54528373 -0.055276919 0.70646048 1.9084491e-38
0.55477333 -0.054236121 0.70689076 1.9545471e-38
0.56404066 -0.054183464 0.70573568 1.6042798e-38
0.57244229 -0.052350603 0.70285964 4.889405e-39
0.49934992 -0.046388075 0.70121104 1.2539686e-38
0.50455177 -0.044986073 0.70502347 1.382862e-38
0.51483852 -0.044639654 0.70657176 1.6595213e-38
0.5248208 -0.045251317 0.70576102 1.5027888e-38
0.53548127 -0.044784684 0.7058177 1.5212279e-38
0.54527271 -0.045083154 0.70580226 1.724022e-38
0.5548023 -0.044954218 0.70634717 1.9361081e-38
0.56454384 -0.045055602 0.70667702 1.7056581e-38
0.57396597 -0.04390562 0.70594341 5.2578288e-39
0.58232099 -0.042584483 0.70328933 4.8894064e-39
0.5061506 -0.036016852 0.7038303 1.281483e-38
0.5152635 -0.034617521 0.70531529 1.8807903e-38
0.52488655 -0.034846131 0.70506924 1.5949844e-38
0.53485996 -0.035101082 0.70536035 1.5027888e-38
0.54532772 -0.03506536 0.70573223 1.5027888e-38
0.55495185 -0.035025049 0.70614552 1.4843882e-38
0.5644145 -0.035053886 0.70636284 6.4563552e-39
0.57468837 -0.034904514 0.7063005 4.8894064e-39
0.58400983 -0.034647666 0.70591438 4.8894064e-39
0.59196061 -0.031793099 0.70461178 8.6683062e-39
0.50857872 -0.028862163 0.70110381 1.3460198e-38
0.51513696 -0.025781587 0.70277691 1.5120079e-38
0.52460623 -0.024932021 0.70433325 1.8346925e-38
0.53510761 -0.024861321 0.70553237 1.5857648e-38
0.54502326 -0.025013989 0.70611912 1.4105947e-38
0.55442035 -0.024948947 0.70635563 6.6407352e-39
0.56454235 -0.025013678 0.70635092 4.8894064e-39
0.57478535 -0.02524415 0.70634228 4.8894064e-39
0.58486712 -0.025026014 0.70641989 4.889405e-39
0.59394562 -0.02402541 0.70618284 8.5761049e-39
0.60201538 -0.022886029 0.70358264 1.7423889e-38
0.51883334 -0.01923601 0.70071143 1.3552395e-38
0.52587122 -0.016252058 0.7022745 1.4935691e-38
0.53491962 -0.014910014 0.70447737 1.6503035e-38
0.54486436 -0.014865912 0.70608276 6.0875642e-39
0.55448622 -0.015284822 0.70650387 4.8890463e-39
0.56447047 -0.014822614 0.70643908 4.8894064e-39
0.57459056 -0.01491874 0.70622694 4.8894064e-39
0.58482206 -0.014660969 0.70647275 4.889405e-39
0.59483409 -0.01523729 0.70644498 1.0235256e-38
0.60480714 -0.014506458 0.70495945 1.9545109e-38
0.61423057 -0.013019551 0.7030353 1.9360719e-38
0.62040991 -0.010105539 0.70236778 2.0098646e-38
0.53620374 -0.0063868291 0.702088 5.0730297e-39
0.54476613 -0.0047928593 0.70463699 4.2436586e-39
0.55443305 -0.0051843966 0.70657015 4.8890449e-39
0.56442958 -0.0046356139 0.7064895 4.8894078e-39
0.57476807 -0.0048752683 0.70620483 4.9812433e-39
0.58514321 -0.0051122131 0.70609343 8.2995139e-39
0.59558463 -0.0053479793 0.70611829 1.8623516e-38
0.60572243 -0.005592464 0.70547181 2.0005717e-38
0.61497515 -0.0044739218 0.70559198 1.9360714e-38
0.62272352 -0.0039666588 0.70514673 1.9268525e-38
0.54664671 0.0031135224 0.70231986 3.6901051e-39
0.5546574 0.0051613348 0.70475608 4.0588988e-39
0.56451648 0.0047629527 0.70638329 4.9812433e-39
0.57497871 0.004603704 0.70595139 7.6541543e-39
0.58556706 0.0046266867 0.70575136 1.4935698e-38
0.59493792 0.0051113558 0.70564073 1.539667e-38
0.60423434 0.0049851243 0.70594889 1.7885949e-38
0.61432815 0.0056007728 0.70703918 1.908413e-38
0.62156755 0.0040527526 0.70703453 1.9268518e-38
0.5570668 0.011635284 0.70179451 4.6116873e-39
0.56503874 0.015150374 0.70406109 1.0511061e-38
0.57544917 0.014878234 0.70538455 1.6042407e-38
0.58545005 0.014818231 0.70543301 1.5212279e-38
0.59497821 0.015725223 0.70534945 1.5120083e-38
0.60447013 0.015516487 0.70567918 1.5027888e-38
0.61418372 0.014922373 0.70588309 1.6226071e-38
0.62116838 0.014599591 0.70446837 1.6963996e-38
0.56807679 0.022198264 0.70139265 1.0602497e-38
0.574835 0.025172817 0.70320052 1.5304473e-38
0.58484823 0.025117598 0.70422405 1.5488866e-38
0.59463048 0.025301084 0.70494485 1.5120083e-38
0.60443515 0.024702987 0.7046966 1.5304475e-38
0.61280054 0.023906959 0.70232844 1.4935692e-38
0.5777548 0.031872023 0.70241469 1.2077628e-38
0.58560568 0.034670327 0.70276767 1.6502656e-38
0.59439307 0.03448521 0.70459646 1.6779605e-38
0.6039533 0.03201199 0.70299578 1.5949843e-38
0.58841723 0.040463969 0.70098066 1.3091418e-38
0.59172928 0.041304469 0.70201087 1.4750935e-38
0.45729455 0.19806612 0.70381147 4.5096335e-39
0.46437892 0.19742002 0.70460469 6.4453788e-39
0.47181457 0.19860843 0.70316827 8.3858254e-39
0.44849953 0.20783734 0.70345211 4.4206917e-39
0.45341966 0.20380037 0.70663393 4.6933003e-39
0.46530426 0.201121 0.70840353 6.1648164e-39
0.47442904 0.20489287 0.7074545 6.6257932e-39
0.43976691 0.21926506 0.70122069 5.0696778e-39
0.44498029 0.21500218 0.70578891 4.3256038e-39
0.45026636 0.21041377 0.70928645 4.6925786e-39
0.4773047 0.21817942 0.70890349 6.7169056e-39
0.43675223 0.22564286 0.70486271 4.2341312e-39
0.44179687 0.22203322 0.70829135 4.7844141e-39
0.47335926 0.22404805 0.70917642 6.5328759e-39
0.42976502 0.23739874 0.70112616 3.77243e-39
0.43306476 0.23464406 0.70605761 4.3248807e-39
0.46911842 0.23259628 0.70841575 6.4410404e-39
0.43434146 0.24476305 0.70603496 4.4177994e-39
0.44059891 0.24926259 0.70922983 3.9564597e-39
0.45855963 0.24938737 0.70666933 6.3488461e-39
0.46223828 0.24470049 0.70781755 6.3488461e-39
0.43834567 0.25121173 0.7017889 4.8842006e-39
0.44486764 0.25295955 0.70572841 4.5103566e-39
0.45329905 0.25146279 0.70840812 6.3495692e-39
0.52892542 -0.33119354 0.7120716 3.043993e-39
0.53330886 -0.3337408 0.71629971 3.1361928e-39
0.52469569 -0.32418129 0.71422201 2.2142113e-39
0.5306291 -0.32954288 0.71960008 2.8599577e-39
0.52421528 -0.31467962 0.71546429 2.7799786e-39
0.52536017 -0.30499488 0.71468383 2.7886022e-39
0.52763826 -0.29497457 0.71508646 2.789321e-39
0.52939856 -0.28770259 0.71407115 2.7896798e-39
0.53075182 -0.28311592 0.71543574 2.8822341e-39
0.53241783 -0.27522445 0.71508801 2.8822355e-39
0.53436232 -0.26513463 0.71502656 2.8822355e-39
0.544092 -0.26857981 0.71300834 6.9280196e-39
0.53587466 -0.25474793 0.71501559 2.974071e-39
0.5370819 -0.24508595 0.71498787 2.974071e-39
0.53828162 -0.23515688 0.71481889 3.433966e-39
0.53938806 -0.22552013 0.71443945 3.5258015e-39
0.54020768 -0.22197601 0.71813267 2.7904e-39
0.5383563 -0.21701162 0.71108073 4.1600235e-39
0.54083073 -0.21459964 0.71558768 2.7896812e-39
0.5418843 -0.20510876 0.7149024 2.786447e-39
0.5430491 -0.19482678 0.71536899 2.7868057e-39
0.54419112 -0.18546407 0.71542078 2.7868057e-39
0.5472489 -0.17524281 0.71445704 2.781775e-39
0.54935712 -0.16758454 0.71386158 2.7763856e-39
0.55142337 -0.16316701 0.71437562 2.7745892e-39
0.55623788 -0.15833174 0.71361262 3.1383522e-39
0.56378192 -0.1568037 0.71362388 3.5979053e-39
0.5422591 -0.054586679 0.71277124 1.9268522e-38
0.53115398 -0.03419444 0.71759725 1.2631924e-38
0.59783757 -0.019997589 0.71317494 1.9545105e-38
0.44967103 0.20558131 0.71019423 6.5379374e-39
0.45723173 0.20685188 0.7115792 5.6127272e-39
0.46496418 0.20605262 0.71208555 6.2570106e-39
0.4719708 0.2084818 0.71169901 6.4410404e-39
0.44858843 0.21728049 0.71110153 5.0606381e-39
0.4547258 0.21510988 0.71306372 5.8885925e-39
0.46477184 0.21464491 0.7139262 6.4410404e-39
0.47327608 0.21441795 0.71184248 6.6247114e-39
0.43924168 0.2287101 0.71052939 5.1524736e-39
0.44547293 0.22546959 0.71205902 5.7045627e-39
0.45470828 0.22484663 0.71431464 6.1648164e-39
0.4642328 0.22489774 0.7133441 6.6247114e-39
0.47135472 0.22251062 0.71094483 6.6247114e-39
0.43794835 0.23599449 0.71179634 5.1528351e-39
0.44473493 0.23465794 0.71363115 6.0729809e-39
0.45450175 0.2350629 0.71408796 6.4410404e-39
0.4632991 0.23396108 0.71190286 6.6247114e-39
0.43798369 0.24258523 0.71129626 4.9688026e-39
0.44458345 0.24485022 0.71283966 5.796757e-39
0.45363361 0.24382141 0.71307224 6.4406816e-39
0.46150732 0.24361287 0.71373689 6.0729809e-39
0.44762895 0.25045747 0.71084732 5.2446678e-39
0.5357275 -0.33434066 0.72155929 2.8599577e-39
0.52564985 -0.3230077 0.72549224 1.7532206e-39
0.52531278 -0.31542927 0.7252053 2.7763828e-39
0.5267356 -0.3050153 0.72496873 2.7904e-39
0.5287503 -0.29560944 0.72471249 2.7904e-39
0.53020817 -0.29163066 0.72828871 2.7904e-39
0.52987546 -0.28923452 0.72136807 2.7904e-39
0.53146601 -0.28468779 0.72519118 2.7904e-39
0.53351545 -0.27467683 0.72504562 2.7904e-39
0.53537875 -0.26477045 0.72521907 2.7904e-39
0.53677857 -0.25495771 0.7250185 2.7904e-39
0.53799915 -0.24514826 0.72480398 2.8815139e-39
0.53928012 -0.23542927 0.72464836 2.7904e-39
0.54019618 -0.23225896 0.72831106 2.7904e-39
0.53971022 -0.228386 0.72094274 2.7904e-39
0.54086751 -0.22443858 0.72557569 2.7904e-39
0.54200917 -0.21498571 0.7247532 2.7904e-39
0.54332274 -0.20501783 0.72515213 2.7904e-39
0.54431283 -0.19512327 0.72486496 2.7904e-39
0.54528868 -0.18506601 0.72531962 2.7904e-39
0.54665643 -0.17466533 0.72510874 2.7907602e-39
0.54853278 -0.16702849 0.723575 2.8836775e-39
0.55271101 -0.16392298 0.72579807 2.9773164e-39
0.55737484 -0.15870245 0.72383189 2.965453e-39
0.56228215 -0.15620238 0.7274912 3.1405088e-39
0.53354937 -0.33253762 0.73734748 2.9521561e-39
0.54035121 -0.33760446 0.73834074 2.9521561e-39
0.52782238 -0.32429025 0.73472106 1.752859e-39
0.52741796 -0.31498441 0.7350179 2.775308e-39
0.52811688 -0.30495182 0.73496181 2.7821352e-39
0.5294863 -0.29725316 0.73485309 2.7824939e-39
0.53053194 -0.29254541 0.73576814 2.7796198e-39
0.5215795 -0.28726104 0.73500478 2.7860868e-39
0.53214788 -0.28499579 0.73506963 2.781775e-39
0.53414428 -0.27514273 0.73483509 2.781775e-39
0.53566402 -0.26515806 0.7353211 2.7806974e-39
0.5436489 -0.26832584 0.73243058 4.7046494e-39
0.53718609 -0.25487924 0.7349568 2.7821352e-39
0.54896414 -0.25168419 0.73866671 2.8599577e-39
0.53888655 -0.24454184 0.73477834 2.782854e-39
0.53986984 -0.23861001 0.73462421 2.7842904e-39
0.54069692 -0.2335404 0.73528504 2.781775e-39
0.54177052 -0.22513185 0.73485863 2.7839316e-39
0.54303855 -0.21486333 0.73491275 2.7842904e-39
0.54427725 -0.20474313 0.7352646 2.7839316e-39
0.54532546 -0.19531374 0.73489946 2.7850092e-39
0.54645675 -0.18482901 0.73544431 2.7850092e-39
0.53982735 -0.17678002 0.73164064 3.5057082e-39
0.54790425 -0.17552137 0.73457623 2.7878861e-39
0.55106068 -0.17196298 0.73837733 3.1505674e-39
0.54946649 -0.16950062 0.733127 2.7904e-39
0.55373144 -0.16481455 0.73650295 3.0666352e-39
0.55718052 -0.15872154 0.7352916 3.1523666e-39
0.56476772 -0.15702346 0.73337311 3.2319884e-39
0.57121569 -0.15663654 0.73361152 3.32131e-39
0.53504461 -0.33331797 0.748676 2.8599577e-39
0.5286029 -0.32367972 0.74528664 1.8450589e-39
0.53098649 -0.32908323 0.7457341 2.8599577e-39
0.56759495 -0.32720101 0.74900413 5.4425774e-39
0.57199258 -0.32213104 0.74743718 6.3641399e-39
0.5291791 -0.31508395 0.74493587 2.7677621e-39
0.53488529 -0.31502968 0.74609065 3.418874e-39
0.57231104 -0.31185764 0.74964988 5.2581805e-39
0.52954412 -0.30598328 0.74230313 2.8599577e-39
0.53061485 -0.30400196 0.74720675 2.768841e-39
0.57684344 -0.3032937 0.74884349 4.9819439e-39
0.53137207 -0.29491258 0.74493021 2.8599577e-39
0.53313082 -0.28524485 0.74484265 2.8599591e-39
0.54240465 -0.28095794 0.74010509 5.1660003e-39
0.53471965 -0.27504942 0.74507576 2.8599577e-39
0.53592825 -0.26501521 0.7452811 2.8599577e-39
0.58277744 -0.26183319 0.74908835 5.7191615e-39
0.53734559 -0.25512326 0.74518615 2.8599577e-39
0.58201575 -0.25837958 0.74993473 5.62697e-39
0.53899187 -0.24542747 0.74485278 2.8599577e-39
0.54020631 -0.24103513 0.74894822 2.8599577e-39
0.53986317 -0.2394098 0.74243081 2.8599577e-39
0.5409081 -0.23490171 0.74540824 2.8599577e-39
0.54266471 -0.22486232 0.74525833 2.8599577e-39
0.58566165 -0.22794211 0.74922734 7.9296537e-39
0.54410785 -0.21513757 0.74521858 2.8599577e-39
0.59106028 -0.21660626 0.74911332 6.0879272e-39
0.54553044 -0.20529607 0.74530536 2.8599577e-39
0.59334129 -0.20313916 0.74891043 6.0879272e-39
0.54678071 -0.19479884 0.74507064 2.8599577e-39
0.54815114 -0.18526091 0.74501878 2.8599577e-39
0.55033988 -0.18276912 0.74952078 3.0443545e-39
0.54919523 -0.17805164 0.74354017 2.8599591e-39
0.55157655 -0.17404138 0.74599212 2.8603192e-39
0.55610722 -0.16528623 0.74450469 2.8613968e-39
0.5609113 -0.16100025 0.74404675 2.8599577e-39
0.55987281 -0.15958692 0.74985552 2.8599577e-39
0.56350178 -0.15701087 0.74513203 2.953954e-39
0.53688616 -0.33303201 0.75539833 2.4908024e-39
0.54353464 -0.33323875 0.75867116 3.6893442e-39
0.55600786 -0.33092067 0.75584245 4.7050095e-39
0.56345075 -0.33236307 0.75031149 4.7046494e-39
0.5298425 -0.32235205 0.751176 1.5684636e-39
0.53465074 -0.32474181 0.75503802 2.6752063e-39
0.54468936 -0.32517445 0.75844741 3.781921e-39
0.55503571 -0.32454574 0.75642759 5.0738019e-39
0.56231815 -0.32402888 0.75366807 4.7968492e-39
0.52993548 -0.31875014 0.75106245 2.8599563e-39
0.53385144 -0.31468204 0.75549066 3.5979067e-39
0.54461586 -0.31480512 0.75894636 4.889405e-39
0.55506736 -0.31523764 0.75785524 5.0738019e-39
0.56382054 -0.3146891 0.75540018 5.1663604e-39
0.57118219 -0.3149057 0.75064802 5.1660003e-39
0.53410447 -0.3051551 0.7560578 3.3213128e-39
0.54411495 -0.30817583 0.75974047 4.7972094e-39
0.55531949 -0.30579081 0.75920111 5.0738019e-39
0.56453437 -0.30460429 0.75670475 5.1660017e-39
0.57219386 -0.3039293 0.75293171 5.1660003e-39
0.53475446 -0.29510903 0.75557578 3.1365544e-39
0.55670291 -0.29518953 0.75927627 5.1660003e-39
0.564758 -0.29492137 0.75683773 5.1660003e-39
0.5723241 -0.29460445 0.75392044 5.2585547e-39
0.53641444 -0.28502902 0.75523818 3.3209484e-39
0.54094732 -0.28251287 0.7591728 3.5053453e-39
0.55565614 -0.28457195 0.7592653 5.0738033e-39
0.56483501 -0.2850267 0.75670731 5.1660003e-39
0.57315701 -0.28444481 0.75393516 5.1660003e-39
0.53749514 -0.27463734 0.75430167 3.2287528e-39
0.54251802 -0.27383798 0.75900477 3.6901051e-39
0.55476278 -0.27497178 0.75916582 5.0738019e-39
0.56476837 -0.27505141 0.75674164 5.1660003e-39
0.5738349 -0.27450687 0.75385398 5.1660017e-39
0.5284335 -0.26667213 0.75112045 3.2287528e-39
0.53792995 -0.26487464 0.75325364 3.0443545e-39
0.54211134 -0.26432955 0.75843364 3.7823021e-39
0.5549255 -0.26516333 0.7590239 5.0738019e-39
0.56459153 -0.2650086 0.75689656 5.0738047e-39
0.57466221 -0.26489595 0.75357956 5.1660017e-39
0.53877217 -0.25537243 0.75264663 2.8599605e-39
0.5431245 -0.25438857 0.758075 3.6901037e-39
0.55598754 -0.25541422 0.75900316 5.0738047e-39
0.56476957 -0.25522172 0.75686848 5.0738047e-39
0.57411045 -0.25470239 0.75432271 5.1660003e-39
0.58148748 -0.25376776 0.75109428 5.2581959e-39
0.53884166 -0.24613383 0.75131887 2.8599591e-39
0.54341906 -0.24451868 0.75691676 3.5057096e-39
0.5570696 -0.24513081 0.75937772 5.1660003e-39
0.56435186 -0.2454952 0.75744253 5.1659989e-39
0.57450336 -0.24521677 0.75480807 5.1659989e-39
0.58182007 -0.24473904 0.75243479 5.1660017e-39
0.54473388 -0.23482385 0.75629926 3.5053453e-39
0.55616087 -0.2357142 0.75982261 4.9816034e-39
0.56544375 -0.2351677 0.75827986 5.1660003e-39
0.57532561 -0.2349523 0.7555635 5.1660003e-39
0.58225745 -0.23514454 0.75331908 5.1660017e-39
0.54631245 -0.22494674 0.7555486 3.3209512e-39
0.55261791 -0.2234696 0.75975412 4.612451e-39
0.56624424 -0.22592877 0.7591446 5.1660003e-39
0.57458764 -0.22503421 0.75697994 5.1660003e-39
0.58361042 -0.22371919 0.75364828 5.1663604e-39
0.5472002 -0.21479608 0.75423414 3.2287458e-39
0.55237126 -0.21575262 0.7592212 4.1514574e-39
0.56874919 -0.21567187 0.75962913 1.0973183e-38
0.57495809 -0.21483476 0.7580204 1.1525992e-38
0.58307517 -0.21459728 0.7550351 7.193923e-39
0.54817683 -0.20497064 0.75378746 2.9528764e-39
0.55167788 -0.20367213 0.7583822 3.4131511e-39
0.57520902 -0.20513457 0.75854933 1.3358619e-38
0.58389932 -0.20509551 0.75573915 1.1430888e-38
0.54882079 -0.19533743 0.75261837 2.7681222e-39
0.55176955 -0.19452108 0.75755209 3.2291129e-39
0.57596135 -0.19543019 0.75851786 1.1049398e-38
0.58486181 -0.19472782 0.75578105 8.4802898e-39
0.59002906 -0.19953281 0.75252473 5.1660017e-39
0.54956532 -0.18844321 0.75043309 2.8599577e-39
0.55278432 -0.18476465 0.75564826 3.0443545e-39
0.57634664 -0.18463965 0.75829566 1.1419624e-38
0.58561641 -0.18492973 0.75508094 1.6219573e-38
0.55515945 -0.17465881 0.75521684 3.0443545e-39
0.56926417 -0.17169337 0.75961494 1.1986595e-38
0.57449162 -0.1750686 0.75830019 1.391722e-38
0.58432239 -0.17523693 0.75485289 1.5113597e-38
0.59006286 -0.17484385 0.7524879 1.9453289e-38
0.55695492 -0.16562048 0.75406647 3.1365558e-39
0.5650031 -0.16451745 0.75709677 4.1514546e-39
0.57423317 -0.16467474 0.7573722 4.5195e-39
0.58216572 -0.16589546 0.7554664 5.8106214e-39
0.56535161 -0.15832084 0.75182372 3.6901065e-39
0.57411349 -0.1584858 0.75419194 3.7823035e-39
0.54844797 -0.33291894 0.76025903 2.6751979e-39
0.55042851 -0.33191726 0.76077783 2.3986124e-39
0.54899591 -0.32867765 0.7601856 8.114705e-39
0.5506894 -0.32986742 0.76047611 3.9666808e-39
0.53942132 -0.30220184 0.76012874 4.7972066e-39
0.54538035 -0.30369645 0.76071131 4.7972052e-39
0.55141985 -0.30220261 0.76038361 5.0738019e-39
0.53931415 -0.29553542 0.76025546 4.5202511e-39
0.54437107 -0.294884 0.76100922 4.7050109e-39
0.55156875 -0.29484907 0.76067406 5.0738047e-39
0.54496783 -0.28518173 0.76080048 4.7046494e-39
0.55132771 -0.28675389 0.76030213 5.0738019e-39
0.5457598 -0.27539411 0.76044238 4.704648e-39
0.54694206 -0.26536021 0.7604478 4.704648e-39
0.55105621 -0.26042795 0.76005191 5.1660003e-39
0.54825485 -0.2560924 0.76037073 4.4280513e-39
0.55102748 -0.2544075 0.76040757 4.9816062e-39
0.54909927 -0.24660882 0.76006556 4.7046466e-39
0.55204225 -0.24476682 0.76041675 4.797208e-39
0.55436724 -0.23486061 0.76034421 4.797208e-39
0.55651534 -0.22587493 0.76019585 4.797208e-39
0.56163609 -0.22438972 0.76032716 4.8894078e-39
0.55678123 -0.2135649 0.76046652 4.796845e-39
0.56336099 -0.21495475 0.76058024 6.9173319e-39
0.55619013 -0.20506042 0.76119643 4.5198882e-39
0.56521368 -0.20515224 0.76074594 1.5120487e-38
0.55649304 -0.19498253 0.76181716 4.2436558e-39
0.56477106 -0.19519399 0.76133078 1.4198542e-38
0.57085186 -0.19376782 0.76009303 1.4100154e-38
0.55728161 -0.18558888 0.76151353 3.8748621e-39
0.56440562 -0.1850218 0.76169342 1.48439e-38
0.57071763 -0.18617295 0.7602427 1.5670368e-38
0.5588426 -0.17600149 0.76098943 3.5979053e-39
0.56456256 -0.17512171 0.76091832 1.4105983e-38
0.56378257 -0.16774003 0.76223272 3.9742492e-39
