# .PCD v0.7 - Point Cloud Data file format
VERSION 0.7
FIELDS x y z rgb
SIZE 4 4 4 4
TYPE F F F F
COUNT 1 1 1 1
WIDTH 1020
HEIGHT 1
VIEWPOINT 0 0 0 1 0 0 0
POINTS 1020
DATA ascii
0.55888474 -0.12502699 0.60018998 1.0879084e-38
0.73885602 -0.12859136 0.60593861 1.0879084e-38
0.77979976 -0.12632929 0.60045558 1.0879084e-38
0.32999837 -0.11502139 0.60405141 0
0.33506566 -0.11498303 0.60999852 1.0786889e-38
0.345395 -0.11508618 0.6099987 1.0786889e-38
0.35515073 -0.11506362 0.60999864 1.0786889e-38
0.36514714 -0.11514197 0.60999876 1.0786889e-38
0.37533459 -0.11501609 0.6099987 1.0786889e-38
0.38505864 -0.11491027 0.60999876 1.0786889e-38
0.39484254 -0.11487808 0.60999876 1.0879084e-38
0.40478358 -0.11494809 0.60999882 1.0879084e-38
0.41490495 -0.1149502 0.60999882 1.0879084e-38
0.42513472 -0.11511777 0.60999888 1.0879084e-38
0.43493062 -0.11491165 0.60999888 1.0879084e-38
0.44510165 -0.11494913 0.60999918 1.0879084e-38
0.45531183 -0.11497104 0.60983312 1.0879084e-38
0.46508971 -0.11505646 0.60999924 1.0879084e-38
0.47467265 -0.11482463 0.60999948 1.0879084e-38
0.48476151 -0.11506888 0.60999936 1.0879084e-38
0.49546862 -0.11498936 0.60999978 1.0879084e-38
0.50528896 -0.11483836 0.60999978 1.0879084e-38
0.51476371 -0.1150701 0.60999984 1.0879084e-38
0.52523106 -0.1151246 0.60999995 1.0879084e-38
0.53567231 -0.11479925 0.60999984 1.0879084e-38
0.54445696 -0.11493873 0.60999984 1.0879084e-38
0.59176576 -0.11293842 0.60552955 1.0879084e-38
0.63393337 -0.11475918 0.60133922 1.0879084e-38
0.3299984 -0.10511895 0.60405177 0
0.33502981 -0.10505628 0.60999852 1.0786889e-38
0.34536651 -0.1050235 0.6099987 1.0786889e-38
0.3552072 -0.10510659 0.6099987 1.0786889e-38
0.36523393 -0.10509004 0.60999876 1.0786889e-38
0.37533465 -0.10497302 0.60999876 1.0786889e-38
0.38496757 -0.10490087 0.60999876 1.0786889e-38
0.39481172 -0.10496642 0.60999876 1.0786889e-38
0.40468723 -0.10500352 0.60999882 1.0879084e-38
0.41476992 -0.10496712 0.60999882 1.0879084e-38
0.42539358 -0.10497501 0.60999888 1.0879084e-38
0.43520305 -0.10493217 0.60999906 1.0879084e-38
0.44476023 -0.10503405 0.60999918 1.0879084e-38
0.45484418 -0.10486569 0.6099993 1.0879084e-38
0.46546996 -0.10506777 0.6099993 1.0879084e-38
0.47483209 -0.10494207 0.60999948 1.0879084e-38
0.48435006 -0.10481308 0.60999936 1.0879084e-38
0.49544108 -0.10502297 0.60999948 1.0879084e-38
0.50540775 -0.10502349 0.60999972 1.0879084e-38
0.51464474 -0.10487007 0.60999984 1.0879084e-38
0.52517921 -0.10504773 0.60999995 1.0879084e-38
0.53567243 -0.10491016 0.60999984 1.0879084e-38
0.54445696 -0.10497945 0.60999984 1.0879084e-38
0.3299984 -0.094991848 0.60420269 0
0.33485714 -0.094960518 0.60999846 1.0786889e-38
0.34531158 -0.094962575 0.6099987 1.0786889e-38
0.3551788 -0.095050484 0.6099987 1.0786889e-38
0.36514717 -0.095041886 0.6099987 1.0786889e-38
0.37533456 -0.094929941 0.60999876 1.0786889e-38
0.38502231 -0.094885461 0.60999876 1.0786889e-38
0.39474753 -0.095056809 0.60999876 1.0786889e-38
0.40466982 -0.0950571 0.60999882 1.0786889e-38
0.41510591 -0.094971441 0.60999882 1.0786889e-38
0.42535788 -0.094967008 0.60999888 1.0879084e-38
0.43486682 -0.095105641 0.60999906 1.0879084e-38
0.44503668 -0.094966538 0.60999918 1.0879084e-38
0.45512855 -0.094966248 0.6099993 1.0879084e-38
0.46507204 -0.094982013 0.6099993 1.0879084e-38
0.47499132 -0.095055461 0.60999942 1.0879084e-38
0.48455572 -0.094929732 0.60999942 1.0879084e-38
0.49525011 -0.094933011 0.60999954 1.0879084e-38
0.5055272 -0.095205612 0.60999978 1.0879084e-38
0.5145846 -0.094830237 0.60999984 1.0879084e-38
0.52503288 -0.095101438 0.60975987 1.0879084e-38
0.53567231 -0.095021054 0.60999984 1.0879084e-38
0.54445714 -0.095020175 0.60999984 1.0879084e-38
0.71245795 -0.096680515 0.60701466 1.0879084e-38
0.79683965 -0.091882303 0.60975707 1.0879084e-38
0.3299984 -0.085085019 0.60405147 0
0.33502999 -0.08503253 0.60999858 1.0786889e-38
0.34520349 -0.084905684 0.6099987 1.0786889e-38
0.3551504 -0.084995143 0.6099987 1.0786889e-38
0.36514714 -0.085093774 0.6099987 1.0786889e-38
0.37533456 -0.084886871 0.60999876 1.0786889e-38
0.38498598 -0.084995352 0.60999876 1.0786889e-38
0.39461678 -0.085151866 0.60999876 1.0786889e-38
0.4047645 -0.084858023 0.60999882 1.0786889e-38
0.41497207 -0.084987029 0.60999882 1.0786889e-38
0.42513466 -0.085097313 0.60999882 1.0786889e-38
0.43519416 -0.084992751 0.60999906 1.0879084e-38
0.44482303 -0.085050367 0.60999924 1.0879084e-38
0.45491028 -0.084962972 0.60999924 1.0879084e-38
0.4654527 -0.084987067 0.6099993 1.0879084e-38
0.47466776 -0.084895827 0.60999942 1.0879084e-38
0.48474362 -0.085173987 0.60999936 1.0879084e-38
0.49522343 -0.084970593 0.60999936 1.0879084e-38
0.50546515 -0.085079491 0.60999978 1.0879084e-38
0.5147053 -0.084937803 0.60999978 1.0879084e-38
0.52507609 -0.084897779 0.60999995 1.0879084e-38
0.5352686 -0.085990787 0.60999972 1.0879084e-38
0.54383171 -0.087723233 0.61000001 1.0879084e-38
0.3299984 -0.075174108 0.60389984 0
0.33520314 -0.075099528 0.60999846 1.0786889e-38
0.34533942 -0.07493791 0.60999864 1.0786889e-38
0.35512218 -0.074940637 0.6099987 1.0786889e-38
0.36514726 -0.075145669 0.6099987 1.0786889e-38
0.37533459 -0.074843802 0.60999876 1.0786889e-38
0.38494954 -0.075106218 0.60999876 1.0786889e-38
0.39477921 -0.075130582 0.60999876 1.0786889e-38
0.40491945 -0.074774668 0.60999882 1.0786889e-38
0.41473216 -0.075118035 0.60999882 1.0786889e-38
0.42539358 -0.074947685 0.60999882 1.0786889e-38
0.43485856 -0.075172119 0.609999 1.0786889e-38
0.44493538 -0.074988879 0.60999918 1.0786889e-38
0.45512843 -0.074933834 0.6099993 1.0879084e-38
0.46509838 -0.074905351 0.6099993 1.0879084e-38
0.47483203 -0.075165525 0.60999948 1.0879084e-38
0.48437738 -0.074925736 0.6099993 1.0879084e-38
0.49546856 -0.075122833 0.60999954 1.0879084e-38
0.50523484 -0.074810632 0.60999984 1.0879084e-38
0.51470524 -0.075216196 0.60999978 1.0879084e-38
0.52401662 -0.075482272 0.60999978 1.0879084e-38
0.53180057 -0.079046302 0.6099999 1.0879084e-38
0.72569287 -0.072998591 0.60925883 1.0879084e-38
0.3299984 -0.065048434 0.60405165 0
0.33499491 -0.06492079 0.60999846 1.0786889e-38
0.34533948 -0.065174408 0.60999864 1.0786889e-38
0.355012 -0.064791657 0.6099987 1.0786889e-38
0.36514717 -0.065197542 0.6099987 1.0786889e-38
0.37533453 -0.064800754 0.6099987 1.0786889e-38
0.38491291 -0.065218121 0.60999876 1.0786889e-38
0.394779 -0.064906299 0.60999876 1.0786889e-38
0.40470511 -0.06508673 0.60999882 1.0786889e-38
0.41493812 -0.065015741 0.60999882 1.0786889e-38
0.42529607 -0.065070815 0.60999888 1.0786889e-38
0.43503061 -0.065066375 0.609999 1.0786889e-38
0.445048 -0.064924426 0.60999924 1.0786889e-38
0.45491022 -0.064934358 0.60999924 1.0786889e-38
0.465271 -0.065049596 0.6099993 1.0879084e-38
0.47484806 -0.064981967 0.60977083 1.0786889e-38
0.48455572 -0.064907238 0.60999942 1.0879084e-38
0.49541497 -0.065026537 0.60999948 1.0879084e-38
0.50540775 -0.064826176 0.60999972 1.0879084e-38
0.5143581 -0.065860651 0.60999972 1.0879084e-38
0.52082044 -0.068376824 0.60999978 1.0879084e-38
0.3299984 -0.054926768 0.60420263 0
0.33488944 -0.054828472 0.60999852 1.0786889e-38
0.34547576 -0.055201419 0.60999864 1.0786889e-38
0.35515058 -0.054727934 0.6099987 1.0786889e-38
0.36514711 -0.055249408 0.6099987 1.0786889e-38
0.37533459 -0.054757692 0.60999876 1.0786889e-38
0.38487625 -0.055331033 0.60999876 1.0786889e-38
0.39487395 -0.054779585 0.60999876 1.0786889e-38
0.40466979 -0.055265106 0.60999882 1.0786889e-38
0.41510585 -0.054804314 0.60999882 1.0786889e-38
0.42519745 -0.055196762 0.60999882 1.0786889e-38
0.43520305 -0.05495606 0.609999 1.0786889e-38
0.44483352 -0.055013876 0.60999918 1.0786889e-38
0.45501375 -0.055040084 0.60999924 1.0786889e-38
0.46527091 -0.054945629 0.60999924 1.0786889e-38
0.47483206 -0.054792117 0.60999948 1.0879084e-38
0.48474362 -0.055146743 0.60999936 1.0879084e-38
0.4951551 -0.054816466 0.60999936 1.0879084e-38
0.50528032 -0.055309717 0.60999972 1.0879084e-38
0.51142973 -0.058391947 0.60999972 1.0879084e-38
0.3299984 -0.045014508 0.60405123 0
0.33503002 -0.044981662 0.60999858 1.0786889e-38
0.3453663 -0.045045983 0.60999864 1.0786889e-38
0.35515061 -0.044872966 0.6099987 1.0786889e-38
0.36514717 -0.045301292 0.60999876 1.0786889e-38
0.37533456 -0.044714637 0.60999876 1.0786889e-38
0.38496765 -0.045310982 0.60999876 1.0786889e-38
0.39487636 -0.044866368 0.60999876 1.0786889e-38
0.40476453 -0.045062635 0.60999882 1.0786889e-38
0.41475889 -0.045160249 0.60999882 1.0786889e-38
0.42529565 -0.044805069 0.60999888 1.0786889e-38
0.43486676 -0.04514432 0.60999906 1.0786889e-38
0.445048 -0.045066491 0.60999924 1.0786889e-38
0.45501381 -0.045024868 0.60999918 1.0786889e-38
0.46527106 -0.044841662 0.60999936 1.0786889e-38
0.47494528 -0.045218013 0.60999948 1.0786889e-38
0.48437744 -0.044907767 0.6099993 1.0786889e-38
0.49534571 -0.044968855 0.60999954 1.0879084e-38
0.50356203 -0.046043411 0.60999966 1.0879084e-38
0.72613531 -0.046146967 0.60875666 1.0879084e-38
0.83924913 -0.047765519 0.60247874 1.0879084e-38
0.32999843 -0.03534231 0.60405111 0
0.33511382 -0.035221469 0.60999852 1.0786889e-38
0.34517926 -0.034801397 0.60999864 1.0786889e-38
0.35515043 -0.035018016 0.6099987 1.0786889e-38
0.36520493 -0.03524635 0.6099987 1.0786889e-38
0.37533468 -0.034671575 0.6099987 1.0786889e-38
0.38496765 -0.035178151 0.60999876 1.0786889e-38
0.39468011 -0.035179537 0.60999876 1.0786889e-38
0.40476453 -0.034745302 0.60999882 1.0786889e-38
0.41493812 -0.035266768 0.60999882 1.0786889e-38
0.42529571 -0.035047028 0.60999894 1.0786889e-38
0.43503052 -0.034782417 0.60999888 1.0786889e-38
0.44483358 -0.035159659 0.60999918 1.0786889e-38
0.45501375 -0.035009664 0.60999924 1.0786889e-38
0.46544322 -0.034978557 0.6099993 1.0786889e-38
0.47472882 -0.035058588 0.60999936 1.0786889e-38
0.48455599 -0.034884743 0.60999942 1.0786889e-38
0.49546856 -0.035256363 0.6099996 1.0786889e-38
0.50417191 -0.033568483 0.60961628 1.0786889e-38
0.81150413 -0.030102914 0.60562152 1.0879084e-38
0.32999846 -0.024979247 0.60405129 0
0.33508533 -0.025036974 0.6099984 1.0786889e-38
0.34533942 -0.024725484 0.60999864 1.0786889e-38
0.35515058 -0.025163045 0.6099987 1.0786889e-38
0.36514726 -0.02520147 0.6099987 1.0786889e-38
0.37533456 -0.024628513 0.6099987 1.0786889e-38
0.38496771 -0.025045315 0.60999876 1.0786889e-38
0.39468351 -0.02537404 0.60999876 1.0786889e-38
0.40494335 -0.024774896 0.60999882 1.0786889e-38
0.41493818 -0.02485463 0.60999882 1.0786889e-38
0.42529574 -0.02528899 0.60999882 1.0786889e-38
0.43503064 -0.024940141 0.60999894 1.0786889e-38
0.44512743 -0.024944726 0.60999918 1.0786889e-38
0.45501378 -0.024994459 0.60999918 1.0786889e-38
0.46508971 -0.024911987 0.6099993 1.0786889e-38
0.47483203 -0.025015589 0.60999948 1.0786889e-38
0.48467645 -0.025258742 0.60999936 1.0786889e-38
0.49523488 -0.024916187 0.60999954 1.0786889e-38
0.50540787 -0.024628881 0.60999972 1.0786889e-38
0.51376843 -0.023735221 0.60999972 1.0786889e-38
0.70972949 -0.021240883 0.60012031 1.0879084e-38
0.32999843 -0.01461618 0.60405135 0
0.33488935 -0.014783011 0.60999852 1.0786889e-38
0.34533957 -0.014961951 0.60999864 1.0786889e-38
0.35515052 -0.015308089 0.6099987 1.0786889e-38
0.3651759 -0.015148664 0.6099987 1.0786889e-38
0.37533456 -0.014585452 0.60999876 1.0786889e-38
0.38496763 -0.014912483 0.60999876 1.0786889e-38
0.39477912 -0.015245572 0.60999876 1.0786889e-38
0.4045856 -0.015237639 0.60999882 1.0786889e-38
0.41514897 -0.014845176 0.60999882 1.0786889e-38
0.42529574 -0.014780329 0.60999882 1.0786889e-38
0.43503049 -0.015097855 0.609999 1.0786889e-38
0.44474313 -0.01506141 0.60999918 1.0786889e-38
0.45501363 -0.014979252 0.60999924 1.0786889e-38
0.46527112 -0.015306986 0.60999936 1.0786889e-38
0.47483209 -0.014828883 0.60999936 1.0786889e-38
0.48444688 -0.015013643 0.6099993 1.0786889e-38
0.49534571 -0.014673429 0.60999966 1.0786889e-38
0.50540793 -0.014981532 0.60999972 1.0786889e-38
0.51470542 -0.015266225 0.60999978 1.0786889e-38
0.52294493 -0.014357413 0.60999972 1.0786889e-38
0.32992622 -0.0050772 0.60430962 4.6097815e-40
0.33502987 -0.0049307765 0.60999858 1.0786889e-38
0.34533948 -0.0051984214 0.60999864 1.0786889e-38
0.35515052 -0.0054531232 0.6099987 1.0786889e-38
0.36514693 -0.0050004451 0.6099987 1.0786889e-38
0.37527257 -0.0045979349 0.6099838 1.0786889e-38
0.38496765 -0.004779648 0.60999876 1.0786889e-38
0.39477909 -0.0050212992 0.60999876 1.0786889e-38
0.40476444 -0.0052672355 0.60999882 1.0786889e-38
0.41473207 -0.0052208863 0.60999882 1.0786889e-38
0.42529568 -0.0050222864 0.60999894 1.0786889e-38
0.43520305 -0.0049799704 0.609999 1.0786889e-38
0.44493529 -0.0047292304 0.60999918 1.0786889e-38
0.45501372 -0.004964042 0.60999918 1.0786889e-38
0.46527094 -0.0052030142 0.60999924 1.0786889e-38
0.47483203 -0.0046421746 0.60999948 1.0786889e-38
0.48455578 -0.0048622489 0.60999942 1.0786889e-38
0.49534574 -0.0051064542 0.60999948 1.0786889e-38
0.50540793 -0.0053341826 0.60999972 1.0786889e-38
0.51470536 -0.0055446057 0.60999978 1.0786889e-38
0.52521801 -0.0050845058 0.61000001 1.0786889e-38
0.5347029 -0.0031128787 0.60999978 1.0786889e-38
0.5415104 -0.00035542436 0.6099999 1.0879084e-38
0.81094086 -0.009443149 0.60789478 1.0879084e-38
0.32999843 0.0047282092 0.60405129 0
0.33503008 0.0047366768 0.60999858 1.0786889e-38
0.34533957 0.0045651104 0.60999864 1.0786889e-38
0.35523564 0.0045135054 0.6099987 1.0786889e-38
0.36498091 0.0053321132 0.6099987 1.0786889e-38
0.37533453 0.0055006719 0.60999876 1.0786889e-38
0.38496765 0.0053531863 0.60999876 1.0786889e-38
0.39477909 0.0052029714 0.60999876 1.0786889e-38
0.40476459 0.005050092 0.60999876 1.0786889e-38
0.41493818 0.0048943297 0.60999882 1.0786889e-38
0.42529574 0.0047357553 0.60999882 1.0786889e-38
0.43486691 0.0048170034 0.609999 1.0786889e-38
0.44493526 0.0051987628 0.60999924 1.0786889e-38
0.45501381 0.0050511677 0.60999924 1.0786889e-38
0.465271 0.0049009565 0.60999936 1.0786889e-38
0.47483215 0.0047609382 0.60999948 1.0786889e-38
0.48455578 0.0046185381 0.60999942 1.0786889e-38
0.49546877 0.0046101259 0.60999954 1.0786889e-38
0.50540775 0.005117116 0.60999972 1.0786889e-38
0.51470524 0.0049871472 0.6099999 1.0786889e-38
0.52497357 0.0055066003 0.60999995 1.0786889e-38
0.53573757 0.0054534995 0.60968173 1.0786889e-38
0.54458654 0.0060867514 0.60999978 1.0786889e-38
0.32999846 0.015091278 0.60405135 0
0.33503008 0.015094663 0.60999835 1.0786889e-38
0.34533951 0.015026039 0.60999858 1.0786889e-38
0.35507321 0.015051194 0.60999864 1.0786889e-38
0.36514714 0.015604765 0.6099987 1.0786889e-38
0.37533444 0.015543732 0.60999876 1.0786889e-38
0.38496765 0.015486022 0.60999876 1.0786889e-38
0.39477921 0.015427238 0.60999876 1.0786889e-38
0.40476444 0.015367419 0.60999882 1.0786889e-38
0.41493821 0.015306469 0.60999882 1.0786889e-38
0.42529565 0.015244416 0.60999888 1.0786889e-38
0.4350307 0.015186096 0.60999888 1.0786889e-38
0.44493526 0.015126759 0.60999918 1.0786889e-38
0.45501369 0.015066375 0.60999918 1.0786889e-38
0.46527109 0.015004928 0.60999918 1.0786889e-38
0.47483215 0.014947644 0.60999936 1.0786889e-38
0.48455575 0.014889394 0.6099993 1.0786889e-38
0.49523488 0.014942527 0.60999948 1.0786889e-38
0.50540799 0.015568414 0.60999972 1.0786889e-38
0.5147053 0.015518902 0.60999978 1.0786889e-38
0.52510208 0.015463533 0.6099999 1.0786889e-38
0.53567231 0.015407246 0.60999984 1.0786889e-38
0.54516166 0.015416228 0.60999984 1.0786889e-38
0.55336595 0.01782063 0.6099999 1.0786889e-38
0.32999843 0.025454342 0.60405135 0
0.33502987 0.025452644 0.60999858 1.0786889e-38
0.34533954 0.025486963 0.60999864 1.0786889e-38
0.35509166 0.025516925 0.60995841 1.0786889e-38
0.36514714 0.025552887 0.6099987 1.0786889e-38
0.3753345 0.025586793 0.60999876 1.0786889e-38
0.38496765 0.025618855 0.60999876 1.0786889e-38
0.39467311 0.025039315 0.60999876 1.0786889e-38
0.40476447 0.024947789 0.60999876 1.0786889e-38
0.41493812 0.024974883 0.60999882 1.0786889e-38
0.42529562 0.025002457 0.60999888 1.0786889e-38
0.43499079 0.024898594 0.60997218 1.0786889e-38
0.44493532 0.025054749 0.60999924 1.0786889e-38
0.45501375 0.025081582 0.60999924 1.0786889e-38
0.46527115 0.025108896 0.60999936 1.0786889e-38
0.47483221 0.025134355 0.60999954 1.0786889e-38
0.48455578 0.02516024 0.60999942 1.0786889e-38
0.4953458 0.025188969 0.60999948 1.0786889e-38
0.50540787 0.025215764 0.60999972 1.0786889e-38
0.5147053 0.02524052 0.60999978 1.0786889e-38
0.52510196 0.025268205 0.6099999 1.0786889e-38
0.53567231 0.025296349 0.60999984 1.0786889e-38
0.54544348 0.025322365 0.60999984 1.0786889e-38
0.55336595 0.021164108 0.6099999 1.0786889e-38
0.32999843 0.035126537 0.60405123 0
0.33502981 0.035120107 0.60999858 1.0786889e-38
0.34533948 0.035250492 0.60999864 1.0786889e-38
0.35515061 0.035374578 0.6099987 1.0786889e-38
0.36514723 0.035501014 0.6099987 1.0786889e-38
0.37524259 0.035538658 0.60999876 1.0786889e-38
0.38496765 0.035027914 0.60999876 1.0786889e-38
0.3948741 0.034507152 0.60999876 1.0786889e-38
0.40476453 0.034528166 0.60999882 1.0786889e-38
0.41493821 0.034643296 0.60999882 1.0786889e-38
0.42529583 0.034760505 0.60999882 1.0786889e-38
0.43503067 0.034870658 0.60999888 1.0786889e-38
0.44493526 0.034982741 0.60999918 1.0786889e-38
0.45501381 0.035096794 0.60999918 1.0786889e-38
0.465271 0.035212867 0.60999924 1.0786889e-38
0.47466773 0.034877773 0.60999942 1.0786889e-38
0.48455584 0.034641027 0.60999942 1.0786889e-38
0.4953458 0.034755945 0.60999948 1.0786889e-38
0.50540787 0.034863114 0.60999978 1.0786889e-38
0.51470542 0.034962136 0.60999978 1.0786889e-38
0.52510196 0.035072863 0.6099999 1.0786889e-38
0.53567231 0.035185449 0.60999984 1.0786889e-38
0.5453549 0.035303082 0.60977292 1.0694333e-38
0.81451088 0.0366088 0.60698295 1.0879084e-38
0.32999843 0.044798732 0.60405135 0
0.33502999 0.044787556 0.60999858 1.0786889e-38
0.34533948 0.04501402 0.60999864 1.0786889e-38
0.35515058 0.045229543 0.6099987 1.0786889e-38
0.36514723 0.045449134 0.6099987 1.0786889e-38
0.37524089 0.045272768 0.60999876 1.0786889e-38
0.38496763 0.044436973 0.60999876 1.0786889e-38
0.39477912 0.044639438 0.60999876 1.0786889e-38
0.40476459 0.044845492 0.60999876 1.0786889e-38
0.41493455 0.045013472 0.60988688 1.0786889e-38
0.42529574 0.045269158 0.60999882 1.0786889e-38
0.43484178 0.045115966 0.60999888 1.0786889e-38
0.44493532 0.044910733 0.60999924 1.0786889e-38
0.45501375 0.045112003 0.60999924 1.0786889e-38
0.465271 0.045316838 0.6099993 1.0786889e-38
0.47499132 0.045011558 0.60999942 1.0786889e-38
0.48455584 0.044911884 0.6099993 1.0786889e-38
0.49523497 0.045000922 0.60999942 1.0786889e-38
0.50540775 0.044510473 0.60999972 1.0786889e-38
0.5147053 0.044683751 0.60999978 1.0786889e-38
0.52510214 0.044877537 0.6099999 1.0786889e-38
0.53567237 0.045074549 0.60999984 1.0786889e-38
0.54544342 0.045256667 0.6099999 1.0786889e-38
0.55336595 0.042896722 0.6099999 1.0786889e-38
0.81956512 0.044420302 0.60721076 1.0879084e-38
0.84225833 0.041024633 0.60516304 1.0786889e-38
0.32999846 0.054946594 0.60419637 0
0.33484843 0.054816641 0.60999846 1.0786889e-38
0.34533948 0.054777559 0.60999864 1.0786889e-38
0.35515061 0.055084504 0.6099987 1.0786889e-38
0.36514714 0.055397257 0.6099987 1.0786889e-38
0.37533471 0.054996904 0.60999876 1.0786889e-38
0.38496763 0.054569807 0.60999876 1.0786889e-38
0.39477929 0.054863706 0.60999876 1.0786889e-38
0.4047645 0.055162806 0.60999882 1.0786889e-38
0.41476989 0.055271965 0.60999882 1.0786889e-38
0.42529571 0.055027202 0.60999894 1.0786889e-38
0.4352195 0.054909315 0.60999894 1.0786889e-38
0.44493535 0.054838724 0.60999918 1.0786889e-38
0.45501381 0.055127211 0.60999918 1.0786889e-38
0.46508974 0.054924011 0.6099993 1.0786889e-38
0.47483212 0.05491088 0.60999948 1.0786889e-38
0.48455587 0.055182736 0.60999942 1.0786889e-38
0.49546865 0.055336431 0.60999948 1.0786889e-38
0.50540775 0.054961767 0.60999966 1.0786889e-38
0.51458466 0.054584529 0.60999984 1.0786889e-38
0.52510214 0.054682203 0.6099999 1.0786889e-38
0.53567237 0.054963648 0.60999984 1.0786889e-38
0.54544348 0.055223823 0.6099999 1.0786889e-38
0.63172716 0.0511421 0.60456759 1.0786889e-38
0.32999846 0.065278821 0.60389984 0
0.33521158 0.065141886 0.60999846 1.0786889e-38
0.34520352 0.064753637 0.60999864 1.0786889e-38
0.35515058 0.064939462 0.6099987 1.0786889e-38
0.36514723 0.065345392 0.6099987 1.0786889e-38
0.37533453 0.064937532 0.6099987 1.0786889e-38
0.38496757 0.064702652 0.60999876 1.0786889e-38
0.39477912 0.065087982 0.60999876 1.0786889e-38
0.40460926 0.065252341 0.60999876 1.0786889e-38
0.41511786 0.064905435 0.60999882 1.0786889e-38
0.42529574 0.064785242 0.60999882 1.0786889e-38
0.43503061 0.065154612 0.60999888 1.0786889e-38
0.44482297 0.064906485 0.60999924 1.0786889e-38
0.45501375 0.065142415 0.60999924 1.0786889e-38
0.46544328 0.064986318 0.6099993 1.0786889e-38
0.47483215 0.065097593 0.60999936 1.0786889e-38
0.48455587 0.064663514 0.60999942 1.0786889e-38
0.4953458 0.065051392 0.60999954 1.0786889e-38
0.50540787 0.065413065 0.60999972 1.0786889e-38
0.51481545 0.065083548 0.6099999 1.0786889e-38
0.52510208 0.064486869 0.6099999 1.0786889e-38
0.53567237 0.064852752 0.60999984 1.0786889e-38
0.54544342 0.065190963 0.60999984 1.0786889e-38
0.55336595 0.062957592 0.6099999 1.0786889e-38
0.68436992 0.069069207 0.6004858 1.0786889e-38
0.32999843 0.075197063 0.60405135 0
0.33503008 0.075170979 0.60999858 1.0786889e-38
0.34533912 0.075000755 0.60999864 1.0786889e-38
0.35515049 0.074794427 0.6099987 1.0786889e-38
0.36514714 0.075293504 0.6099987 1.0786889e-38
0.37536526 0.074875452 0.6099987 1.0786889e-38
0.38496765 0.074835479 0.60999876 1.0786889e-38
0.39477921 0.075312242 0.60999876 1.0786889e-38
0.40492779 0.074796088 0.60999876 1.0786889e-38
0.41493824 0.074804395 0.60999882 1.0786889e-38
0.42519745 0.075179018 0.60999882 1.0786889e-38
0.43503064 0.074996911 0.60999894 1.0786889e-38
0.44503662 0.074810728 0.60999918 1.0786889e-38
0.45501387 0.075157613 0.60999918 1.0786889e-38
0.46527106 0.074851505 0.60999936 1.0786889e-38
0.47483203 0.075284287 0.60999948 1.0786889e-38
0.48455566 0.074934378 0.6099993 1.0786889e-38
0.49522343 0.074763246 0.60999948 1.0786889e-38
0.50540775 0.075060405 0.60999972 1.0786889e-38
0.5147053 0.075468875 0.60999978 1.0786889e-38
0.5248822 0.07472109 0.60999995 1.0786889e-38
0.53567243 0.074741855 0.60999984 1.0786889e-38
0.54544336 0.075158112 0.60999984 1.0786889e-38
0.55137432 0.071238071 0.6099999 1.0786889e-38
0.32999843 0.084869258 0.60405111 0
0.33503002 0.08483845 0.60999858 1.0786889e-38
0.34547576 0.085251674 0.60999864 1.0786889e-38
0.35515058 0.084649406 0.60999864 1.0786889e-38
0.36514726 0.085241616 0.6099987 1.0786889e-38
0.37533459 0.084818959 0.6099987 1.0786889e-38
0.38496765 0.084968328 0.60999876 1.0786889e-38
0.39458051 0.085238449 0.60999876 1.0786889e-38
0.4047645 0.084640898 0.60999876 1.0786889e-38
0.41493824 0.08521653 0.60999882 1.0786889e-38
0.42540458 0.084915526 0.60999888 1.0786889e-38
0.43503061 0.084839188 0.60999888 1.0786889e-38
0.44474322 0.085022546 0.60999918 1.0786889e-38
0.45501375 0.085172825 0.60999924 1.0786889e-38
0.46527085 0.084955491 0.60999918 1.0786889e-38
0.47471923 0.084857807 0.60999942 1.0786889e-38
0.48455593 0.085205227 0.60999942 1.0786889e-38
0.49534529 0.084981658 0.60999942 1.0786889e-38
0.50540781 0.084707759 0.6099996 1.0786889e-38
0.51470524 0.085190512 0.60999978 1.0786889e-38
0.52520198 0.085175 0.60999995 1.0786889e-38
0.53567237 0.084630951 0.60999984 1.0786889e-38
0.54544342 0.08512529 0.60999984 1.0786889e-38
0.32999846 0.094782084 0.60420251 0
0.33484855 0.094860509 0.60999846 1.0786889e-38
0.34533957 0.095226452 0.60999864 1.0786889e-38
0.35501212 0.094714969 0.6099987 1.0786889e-38
0.36514714 0.095189735 0.6099987 1.0786889e-38
0.3753086 0.094862625 0.60990936 1.0786889e-38
0.38496765 0.095101133 0.60999876 1.0786889e-38
0.39481187 0.094922215 0.60999876 1.0786889e-38
0.40476453 0.094958209 0.60999876 1.0786889e-38
0.41472769 0.09521731 0.60999882 1.0786889e-38
0.42529574 0.094809994 0.60999888 1.0786889e-38
0.43484184 0.095076188 0.60999888 1.0786889e-38
0.44512743 0.094914556 0.60999918 1.0786889e-38
0.45491028 0.095068343 0.60999918 1.0786889e-38
0.46527112 0.095059462 0.60999924 1.0786889e-38
0.47493502 0.095018372 0.60999936 1.0786889e-38
0.48443556 0.09482757 0.6099993 1.0786889e-38
0.49546862 0.095202945 0.60999936 1.0786889e-38
0.50524002 0.09485589 0.60999966 1.0786889e-38
0.5147053 0.094912134 0.60999978 1.0786889e-38
0.52523124 0.095387541 0.60999995 1.0786889e-38
0.53567237 0.09452007 0.60999984 1.0786889e-38
0.54544348 0.095092423 0.60999984 1.0786889e-38
0.55137432 0.099612564 0.6099999 1.0786889e-38
0.67511916 0.099754147 0.60805094 1.0786889e-38
0.78645253 0.09270028 0.60326469 1.0786889e-38
0.8022297 0.092157029 0.60275102 1.0786889e-38
0.83634293 0.096944071 0.60840636 1.0786889e-38
0.32999846 0.10490318 0.60405159 0
0.33513364 0.10511673 0.60999846 1.0786889e-38
0.34533957 0.10499003 0.60999864 1.0786889e-38
0.35512251 0.104963 0.6099987 1.0786889e-38
0.36514714 0.10513786 0.6099987 1.0786889e-38
0.37533468 0.1049051 0.6099987 1.0786889e-38
0.38496765 0.10523397 0.60999876 1.0786889e-38
0.39484248 0.10483239 0.60999876 1.0786889e-38
0.40466973 0.10516019 0.60999876 1.0786889e-38
0.41514406 0.10485878 0.60999882 1.0786889e-38
0.42505026 0.10501988 0.60997725 1.0786889e-38
0.43521956 0.10488613 0.60999888 1.0786889e-38
0.44476867 0.10500052 0.60999918 1.0786889e-38
0.45512843 0.10506523 0.60999924 1.0786889e-38
0.46509838 0.10491729 0.60999924 1.0786889e-38
0.47483206 0.10506084 0.60999948 1.0786889e-38
0.48455533 0.10495597 0.6099993 1.0786889e-38
0.49534574 0.1049138 0.60999942 1.0786889e-38
0.50558102 0.10526981 0.60999948 1.0786889e-38
0.51470542 0.10463373 0.60999978 1.0786889e-38
0.52510202 0.10533966 0.6099999 1.0786889e-38
0.53554749 0.10458636 0.60999984 1.0786889e-38
0.54544348 0.10505958 0.60999984 1.0786889e-38
0.55137438 0.10545438 0.6099999 1.0786889e-38
0.32959229 0.11516362 0.60394728 0
0.33511403 0.11513205 0.60999852 1.0694693e-38
0.3452563 0.1148573 0.60999864 1.0786889e-38
0.35517874 0.11511632 0.6099987 1.0786889e-38
0.36514726 0.11508599 0.6099987 1.0786889e-38
0.37539569 0.11484266 0.60999876 1.0786889e-38
0.38487622 0.1152527 0.60999876 1.0786889e-38
0.39487407 0.11484766 0.60999876 1.0786889e-38
0.40468723 0.11510609 0.60999876 1.0786889e-38
0.41493827 0.11496551 0.60999882 1.0786889e-38
0.42535797 0.11494585 0.60999882 1.0786889e-38
0.43493056 0.11500377 0.60999888 1.0786889e-38
0.44511077 0.11490244 0.60999918 1.0786889e-38
0.45484418 0.11497301 0.60999918 1.0786889e-38
0.46545285 0.11499475 0.60999924 1.0786889e-38
0.47467259 0.11494935 0.60999942 1.0786889e-38
0.48467645 0.11508716 0.6099993 1.0786889e-38
0.49513641 0.11489291 0.60999942 1.0786889e-38
0.50540781 0.11525773 0.60999954 1.0786889e-38
0.51452982 0.11469566 0.60999978 1.0786889e-38
0.52510202 0.11514432 0.6099999 1.0786889e-38
0.53560978 0.11479738 0.6099999 1.0786889e-38
0.54544348 0.11502673 0.6099999 1.0786889e-38
0.55137438 0.11546891 0.6099999 1.0786889e-38
0.80626678 0.1174975 0.60955614 1.0786889e-38
0.32999843 0.12493978 0.60405123 0
0.33494669 0.12497752 0.60999852 1.0694693e-38
0.34525779 0.12491813 0.60999864 1.0694693e-38
0.35520729 0.12517181 0.6099987 1.0694693e-38
0.36514723 0.12503412 0.60999864 1.0786889e-38
0.37533468 0.12478682 0.6099987 1.0786889e-38
0.38491297 0.12514032 0.60999876 1.0786889e-38
0.39477906 0.124973 0.60999876 1.0786889e-38
0.4048422 0.1249213 0.60999876 1.0786889e-38
0.41476992 0.12517147 0.60999882 1.0786889e-38
0.42539373 0.1249531 0.60999882 1.0786889e-38
0.43503103 0.12496445 0.60999888 1.0786889e-38
0.44483361 0.12497707 0.60999918 1.0786889e-38
0.45519233 0.12496495 0.60999918 1.0786889e-38
0.4650721 0.12499424 0.60999924 1.0786889e-38
0.47499651 0.1251051 0.60999942 1.0786889e-38
0.48436838 0.12498251 0.60999936 1.0786889e-38
0.4954412 0.12510359 0.60999948 1.0786889e-38
0.50540787 0.12490508 0.60999954 1.0786889e-38
0.51476353 0.1250428 0.60999978 1.0786889e-38
0.52510196 0.12494898 0.6099999 1.0786889e-38
0.53567231 0.12500992 0.60999984 1.0786889e-38
0.54544348 0.12499389 0.60999984 1.0786889e-38
0.55137438 0.12548342 0.6099999 1.0786889e-38
0.57580298 0.12501356 0.60079974 1.0786889e-38
0.32999846 0.13484716 0.60420269 0
0.33493596 0.13490248 0.60999852 1.0694693e-38
0.34533933 0.13497645 0.60999864 1.0694693e-38
0.35515064 0.13513011 0.60999864 1.0694693e-38
0.36514726 0.13498223 0.6099987 1.0694693e-38
0.37533453 0.13482985 0.60999876 1.0786889e-38
0.38494954 0.13502896 0.60999876 1.0786889e-38
0.3946836 0.13509576 0.60999876 1.0786889e-38
0.40485889 0.13487071 0.60999876 1.0786889e-38
0.41493863 0.13504449 0.60999882 1.0786889e-38
0.42513472 0.13510139 0.60999882 1.0786889e-38
0.43513024 0.13492799 0.60999888 1.0786889e-38
0.44481277 0.13512844 0.60994655 1.0786889e-38
0.45484418 0.13500048 0.60999924 1.0786889e-38
0.46547005 0.13507526 0.60999918 1.0786889e-38
0.47471914 0.13500296 0.60999942 1.0786889e-38
0.48462403 0.13510621 0.6099993 1.0786889e-38
0.49546871 0.13506943 0.60999942 1.0786889e-38
0.50523502 0.13488723 0.60999966 1.0786889e-38
0.51482636 0.13524668 0.60999984 1.0786889e-38
0.52510202 0.13475364 0.6099999 1.0786889e-38
0.53567231 0.13506384 0.60999984 1.0786889e-38
0.54544353 0.13496105 0.60999984 1.0786889e-38
0.55137438 0.13549796 0.6099999 1.0786889e-38
0.61352873 0.13960017 0.60118681 1.0786889e-38
0.78356713 0.13176143 0.60288221 1.0786889e-38
0.32999846 0.1449737 0.60405165 0
0.33506426 0.14499931 0.60999846 1.0694693e-38
0.34542108 0.14503711 0.60999864 1.0694693e-38
0.35523567 0.14508384 0.60999864 1.0694693e-38
0.36514711 0.14493038 0.6099987 1.0694693e-38
0.37533456 0.14487295 0.6099987 1.0694693e-38
0.38498598 0.14491859 0.60999876 1.0694693e-38
0.39471567 0.14510894 0.60999876 1.0786889e-38
0.40476459 0.14507096 0.60999876 1.0786889e-38
0.41510594 0.14492209 0.60999882 1.0786889e-38
0.42535791 0.14497223 0.60999882 1.0786889e-38
0.43484175 0.14503643 0.60999888 1.0786889e-38
0.4449349 0.14495347 0.60999918 1.0786889e-38
0.45519233 0.14499846 0.60999918 1.0786889e-38
0.46508971 0.14506851 0.6099993 1.0786889e-38
0.47483185 0.14502318 0.60999942 1.0786889e-38
0.48479235 0.14499359 0.60973787 1.0786889e-38
0.49522343 0.14491391 0.60999936 1.0786889e-38
0.50540769 0.14500226 0.60999978 1.0786889e-38
0.5147053 0.14514051 0.60999972 1.0786889e-38
0.52490163 0.14483838 0.60999995 1.0786889e-38
0.53573477 0.14511359 0.6099999 1.0786889e-38
0.54544342 0.1449282 0.60999984 1.0786889e-38
0.55137438 0.14551249 0.6099999 1.0786889e-38
0.75578201 0.14023066 0.60121655 1.0786889e-38
0.32999846 0.15510429 0.60389966 0
0.33508965 0.15501282 0.60999852 1.0694693e-38
0.34542301 0.15510105 0.60999864 1.0694693e-38
0.35515064 0.15504199 0.6099987 1.0694693e-38
0.36514714 0.15487847 0.6099987 1.0694693e-38
0.37533468 0.15491599 0.60999876 1.0694693e-38
0.38496757 0.1549318 0.60999876 1.0694693e-38
0.39474708 0.15501873 0.60999876 1.0694693e-38
0.40460926 0.15514788 0.60999876 1.0786889e-38
0.41483927 0.15502147 0.60999882 1.0786889e-38
0.42539358 0.15498048 0.60999882 1.0786889e-38
0.4352195 0.15486291 0.60999888 1.0786889e-38
0.4448716 0.15501074 0.60999918 1.0786889e-38
0.45481834 0.15490043 0.60999918 1.0786889e-38
0.46533686 0.15503196 0.6099993 1.0786889e-38
0.47494534 0.15504612 0.60999942 1.0786889e-38
0.48436847 0.15500025 0.60999936 1.0786889e-38
0.49524999 0.15487666 0.60999936 1.0786889e-38
0.5055809 0.15512158 0.60999978 1.0786889e-38
0.51470536 0.15486211 0.60999972 1.0786889e-38
0.52507615 0.15504295 0.60999995 1.0786889e-38
0.53567243 0.15517215 0.60999978 1.0786889e-38
0.54544348 0.15489534 0.60999984 1.0786889e-38
0.55137438 0.155527 0.6099999 1.0786889e-38
0.58612818 0.15133284 0.60875094 1.0786889e-38
0.69956082 0.15148814 0.60354739 1.0786889e-38
0.32999843 0.16501032 0.60405129 0
0.33497268 0.16502477 0.60999846 1.0694693e-38
0.34525636 0.16506581 0.60999864 1.0694693e-38
0.35506591 0.1649977 0.60999864 1.0694693e-38
0.36506093 0.1649283 0.6099987 1.0694693e-38
0.37533459 0.16495906 0.6099987 1.0694693e-38
0.38502234 0.16494261 0.60999876 1.0694693e-38
0.39481094 0.16492929 0.60999876 1.0694693e-38
0.40476495 0.16496727 0.60999876 1.0694693e-38
0.41477445 0.16513902 0.60982114 1.0694693e-38
0.42513472 0.16512184 0.60999882 1.0786889e-38
0.43493065 0.16496788 0.60999888 1.0786889e-38
0.44510168 0.16505952 0.60999918 1.0786889e-38
0.4552092 0.16490297 0.60999918 1.0786889e-38
0.46527138 0.16500902 0.6099993 1.0786889e-38
0.47466776 0.16493605 0.60999942 1.0786889e-38
0.48455533 0.1650003 0.6099993 1.0786889e-38
0.49544108 0.16496916 0.60999936 1.0786889e-38
0.50540775 0.16510238 0.60999972 1.0786889e-38
0.5145846 0.16475196 0.60999984 1.0786889e-38
0.52510208 0.1649828 0.6099999 1.0786889e-38
0.5357976 0.16521977 0.6099999 1.0786889e-38
0.54544348 0.16486248 0.60999984 1.0786889e-38
0.55137438 0.16554153 0.6099999 1.0786889e-38
0.64506972 0.1686454 0.60570067 1.0786889e-38
0.80138385 0.16783673 0.60863823 1.0786889e-38
0.32999846 0.17491226 0.60420245 0
0.33499408 0.17503698 0.60999846 1.0694693e-38
0.34528401 0.17502724 0.60999864 1.0694693e-38
0.35509405 0.17505239 0.60999864 1.0694693e-38
0.36514723 0.17497694 0.6099987 1.0694693e-38
0.37533465 0.17500208 0.6099987 1.0694693e-38
0.38496771 0.17495672 0.60999876 1.0694693e-38
0.39484254 0.17494571 0.60999876 1.0694693e-38
0.40482122 0.17491522 0.60999876 1.0694693e-38
0.41497222 0.17509931 0.60999882 1.0694693e-38
0.42535797 0.17499866 0.60999882 1.0694693e-38
0.43496817 0.17506012 0.60999888 1.0786889e-38
0.44474313 0.17512308 0.60999918 1.0786889e-38
0.45481828 0.17492747 0.60999918 1.0786889e-38
0.46520445 0.17498451 0.60999924 1.0786889e-38
0.47499144 0.17510556 0.60999942 1.0786889e-38
0.48474362 0.17500499 0.60999936 1.0786889e-38
0.49546865 0.17493591 0.60999936 1.0786889e-38
0.50528902 0.17491564 0.60999984 1.0786889e-38
0.51464653 0.17495497 0.60999978 1.0786889e-38
0.52512759 0.1749233 0.60999995 1.0786889e-38
0.53567231 0.17528105 0.60999984 1.0786889e-38
0.54544348 0.17482963 0.6099999 1.0786889e-38
0.55137438 0.17555606 0.6099999 1.0786889e-38
0.32999846 0.18504423 0.60405153 0
0.33502966 0.18496399 0.60999852 1.0694693e-38
0.34531161 0.18498941 0.60999864 1.0694693e-38
0.35515064 0.1850078 0.60999864 1.0694693e-38
0.36508951 0.18502562 0.6099987 1.0694693e-38
0.37533465 0.18504518 0.6099987 1.0694693e-38
0.38505867 0.18496829 0.60999876 1.0694693e-38
0.39477921 0.18506579 0.60999876 1.0694693e-38
0.40485886 0.18498768 0.60999876 1.0694693e-38
0.41500619 0.18498139 0.60999882 1.0694693e-38
0.42539364 0.18500784 0.60999882 1.0694693e-38
0.43519416 0.18502609 0.60999888 1.0694693e-38
0.44512755 0.18504529 0.60999918 1.0786889e-38
0.45520806 0.18490973 0.60982037 1.0786889e-38
0.46545279 0.18495619 0.60999918 1.0786889e-38
0.47471923 0.18514809 0.60999942 1.0786889e-38
0.48436838 0.18501799 0.6099993 1.0786889e-38
0.49515504 0.18490551 0.60999936 1.0786889e-38
0.50534832 0.18488054 0.60999978 1.0786889e-38
0.51476562 0.18515757 0.60999978 1.0786889e-38
0.52517927 0.18500037 0.60999995 1.0786889e-38
0.53567237 0.18517016 0.60999984 1.0786889e-38
0.54544348 0.1847968 0.60999984 1.0786889e-38
0.55137438 0.18557058 0.6099999 1.0786889e-38
0.65580291 0.18675321 0.60504168 1.0786889e-38
0.71102464 0.18136035 0.60059559 1.0694693e-38
0.32999843 0.19494668 0.60405117 0
0.33506581 0.19489194 0.60999852 1.0694693e-38
0.34533936 0.1949524 0.60999864 1.0694693e-38
0.3551223 0.19496256 0.60999864 1.0694693e-38
0.36514723 0.19507566 0.6099987 1.0694693e-38
0.37533456 0.19508824 0.60999876 1.0694693e-38
0.38496757 0.19498196 0.60999876 1.0694693e-38
0.39477861 0.19508138 0.60999876 1.0694693e-38
0.40466982 0.19506063 0.60999876 1.0694693e-38
0.41483763 0.1948593 0.60999882 1.0694693e-38
0.4251101 0.19501714 0.60999882 1.0694693e-38
0.43484175 0.19499665 0.60999888 1.0694693e-38
0.44474319 0.19497575 0.60999918 1.0694693e-38
0.45481834 0.1949545 0.60999918 1.0694693e-38
0.46507224 0.19493288 0.60999924 1.0786889e-38
0.47477549 0.19486123 0.60999942 1.0786889e-38
0.48455545 0.19502279 0.6099993 1.0786889e-38
0.4953455 0.19500123 0.60999936 1.0786889e-38
0.50546527 0.19500616 0.60999978 1.0786889e-38
0.51482642 0.19520262 0.60999984 1.0786889e-38
0.5252313 0.19507878 0.60999995 1.0786889e-38
0.53567231 0.19505924 0.60999984 1.0786889e-38
0.54544348 0.19476394 0.60999984 1.0786889e-38
0.55137438 0.19558512 0.6099999 1.0786889e-38
0.32999846 0.20485377 0.6038999 0
0.33503047 0.20498972 0.60999846 1.0694693e-38
0.34536728 0.20491618 0.60999864 1.0694693e-38
0.35515058 0.20501913 0.60999864 1.0694693e-38
0.36514723 0.20502377 0.60999864 1.0694693e-38
0.37533453 0.20513128 0.60999876 1.0694693e-38
0.38487622 0.20499313 0.60999876 1.0694693e-38
0.39471564 0.20499051 0.60999876 1.0694693e-38
0.40468717 0.20500796 0.60999876 1.0694693e-38
0.41493842 0.20495428 0.60999882 1.0694693e-38
0.42537636 0.2049 0.60999882 1.0694693e-38
0.43511266 0.20496479 0.60999888 1.0694693e-38
0.44501877 0.20503071 0.60999906 1.0694693e-38
0.45467955 0.2042962 0.6099993 1.0694693e-38
0.46333155 0.201627 0.6099993 1.0786889e-38
0.48621044 0.20114207 0.60999954 1.0786889e-38
0.49615234 0.20256513 0.6099996 1.0786889e-38
0.50558525 0.2043519 0.60972077 1.0786889e-38
0.51470542 0.20509049 0.60999972 1.0786889e-38
0.52510214 0.20502046 0.6099999 1.0786889e-38
0.53567243 0.20494838 0.60999978 1.0786889e-38
0.54531652 0.20489949 0.60999995 1.0786889e-38
0.55137438 0.20559965 0.6099999 1.0786889e-38
0.78965747 0.20313029 0.60364687 1.0786889e-38
0.32999846 0.21497732 0.60420251 0
0.33499402 0.21508645 0.60999852 1.0694693e-38
0.34531239 0.21498056 0.60999864 1.0694693e-38
0.35515064 0.21497461 0.6099987 1.0694693e-38
0.36511818 0.21507214 0.6099987 1.0694693e-38
0.37524256 0.21507208 0.6099987 1.0694693e-38
0.38496757 0.21500556 0.60999876 1.0694693e-38
0.39474747 0.21500634 0.60999876 1.0694693e-38
0.40478358 0.21495736 0.60999876 1.0694693e-38
0.41503927 0.21505198 0.60999882 1.0694693e-38
0.42529529 0.21490815 0.60999882 1.0694693e-38
0.43496737 0.21493186 0.60999888 1.0694693e-38
0.44475946 0.214982 0.60999918 1.0694693e-38
0.45174912 0.21175124 0.60999924 1.0694693e-38
0.51620436 0.21131894 0.60999966 1.0786889e-38
0.52561486 0.21364941 0.60999972 1.0786889e-38
0.53554749 0.21500352 0.6099999 1.0694693e-38
0.54544348 0.21502946 0.60999984 1.0786889e-38
0.55137438 0.21561418 0.6099999 1.0786889e-38
0.32982245 0.22490063 0.60419255 0
0.33494535 0.22496337 0.6099391 1.0694693e-38
0.34536687 0.22513728 0.60999864 1.0694693e-38
0.35517874 0.2249317 0.60999864 1.0694693e-38
0.36514714 0.22512276 0.6099987 1.0694693e-38
0.37533459 0.22501162 0.60999876 1.0694693e-38
0.3849054 0.22491859 0.60999483 1.0694693e-38
0.39477935 0.22502303 0.60999876 1.0694693e-38
0.40482125 0.22503048 0.60999876 1.0694693e-38
0.4148691 0.22492595 0.60999882 1.0694693e-38
0.42521542 0.22491403 0.60999882 1.0694693e-38
0.43503094 0.22490101 0.60999882 1.0694693e-38
0.44253677 0.22386257 0.60999924 1.0694693e-38
0.53761131 0.2225692 0.60999984 1.0694693e-38
0.54572439 0.22471103 0.60999978 1.0694693e-38
0.55137438 0.22562869 0.6099999 1.0694693e-38
0.32999846 0.23501723 0.60405117 0
0.3349832 0.23502958 0.60999846 1.0694693e-38
0.34531173 0.23520052 0.60999864 1.0694693e-38
0.35515061 0.23488598 0.60999864 1.0694693e-38
0.36514714 0.23507091 0.6099987 1.0694693e-38
0.37533456 0.23505472 0.6099987 1.0694693e-38
0.38494954 0.23490803 0.60999876 1.0694693e-38
0.39481091 0.23504059 0.60999876 1.0694693e-38
0.40476418 0.23497824 0.60999876 1.0694693e-38
0.41490555 0.23491411 0.60999882 1.0694693e-38
0.42531538 0.23504974 0.60999882 1.0694693e-38
0.43463194 0.23471192 0.60999894 1.0694693e-38
0.54753602 0.23426279 0.60999995 1.0694693e-38
0.55137438 0.23564322 0.6099999 1.0694693e-38
0.63959259 0.23844887 0.60331976 1.0694693e-38
0.72421402 0.23523231 0.60783917 1.0786889e-38
0.75302917 0.23559812 0.60108173 1.0694693e-38
0.32999846 0.24515 0.60405105 0
0.33503014 0.24503982 0.60999852 1.0694693e-38
0.34533948 0.24506524 0.60999864 1.0694693e-38
0.35512307 0.24494398 0.60999864 1.0694693e-38
0.36514717 0.245019 0.6099987 1.0694693e-38
0.37527332 0.24499513 0.60999876 1.0694693e-38
0.38496771 0.24492085 0.60999876 1.0694693e-38
0.39462689 0.24500808 0.60995132 1.0694693e-38
0.40470776 0.24492441 0.60999876 1.0694693e-38
0.41493857 0.2451154 0.60999876 1.0694693e-38
0.42535722 0.24506024 0.60999882 1.0694693e-38
0.43448451 0.24511081 0.60999894 1.0694693e-38
0.54839951 0.24512704 0.61000001 1.0694693e-38
0.55137438 0.24565774 0.6099999 1.0694693e-38
0.73620874 0.24256712 0.6061191 1.0786889e-38
0.32999846 0.25528279 0.60405123 0
0.33507717 0.25505137 0.60999852 1.0694693e-38
0.34533942 0.25492841 0.60999864 1.0694693e-38
0.35509408 0.25509775 0.60999864 1.0694693e-38
0.36514723 0.25496718 0.6099987 1.0694693e-38
0.37533465 0.25493529 0.6099987 1.0694693e-38
0.38496763 0.25505367 0.60999876 1.0694693e-38
0.39477906 0.25496498 0.60999876 1.0694693e-38
0.40474576 0.25499716 0.60999876 1.0694693e-38
0.41493815 0.25510719 0.60999882 1.0694693e-38
0.42521554 0.25493664 0.60999882 1.0694693e-38
0.4350507 0.25505972 0.60999882 1.0694693e-38
0.44305068 0.25631055 0.60999918 1.0694693e-38
0.53955632 0.25842965 0.6099999 1.0694693e-38
0.54589778 0.25541621 0.60999978 1.0694693e-38
0.55337548 0.2564652 0.6099999 1.0694693e-38
0.32999846 0.26495498 0.60405117 0
0.33501807 0.26497802 0.60999852 1.0694693e-38
0.34528512 0.26499349 0.60999864 1.0694693e-38
0.35515064 0.26505342 0.60999864 1.0694693e-38
0.36514693 0.26501679 0.6099987 1.0694693e-38
0.37533456 0.26497832 0.6099987 1.0694693e-38
0.38498601 0.2650671 0.60999876 1.0694693e-38
0.39477906 0.26498064 0.60999876 1.0694693e-38
0.40478367 0.26507097 0.60999876 1.0694693e-38
0.41493827 0.26487261 0.60999882 1.0694693e-38
0.42531553 0.265075 0.60999882 1.0694693e-38
0.43503034 0.26502728 0.60999888 1.0694693e-38
0.44493565 0.26485246 0.60999912 1.0694693e-38
0.4542878 0.26628426 0.60999936 1.0694693e-38
0.46268401 0.26861101 0.60999924 1.0694693e-38
0.53749692 0.26565713 0.60999978 1.0694693e-38
0.54537982 0.2650294 0.60999995 1.0694693e-38
0.55537659 0.26562485 0.60999995 1.0694693e-38
0.59854108 0.26061961 0.60890448 1.0694693e-38
0.67097557 0.26097411 0.6005643 1.0694693e-38
0.81139797 0.26132271 0.60511899 1.0694693e-38
0.32999846 0.2748574 0.60405147 0
0.33495963 0.27490601 0.60999852 1.0694693e-38
0.34533948 0.27495304 0.60999864 1.0694693e-38
0.3552061 0.2751072 0.60999864 1.0694693e-38
0.36514726 0.27506641 0.6099987 1.0694693e-38
0.37533465 0.2750214 0.6099987 1.0694693e-38
0.38496763 0.27507824 0.60999876 1.0694693e-38
0.39484391 0.27499369 0.60999876 1.0694693e-38
0.40472561 0.27502206 0.60999876 1.0694693e-38
0.41493836 0.27486438 0.60999882 1.0694693e-38
0.42529538 0.27495697 0.60999888 1.0694693e-38
0.43501085 0.27499425 0.60999888 1.0694693e-38
0.44489354 0.27503842 0.609999 1.0694693e-38
0.45503563 0.27506965 0.60999918 1.0694693e-38
0.46513456 0.27510008 0.60999924 1.0694693e-38
0.4743709 0.27689758 0.60999948 1.0694693e-38
0.48152772 0.27874637 0.60999948 1.0694693e-38
0.52859926 0.27819231 0.60999984 1.0694693e-38
0.53567213 0.27499461 0.60999984 1.0694693e-38
0.54544342 0.27516407 0.60999984 1.0694693e-38
0.55537659 0.27567133 0.6099999 1.0694693e-38
0.32999846 0.28499568 0.60420251 0
0.33500651 0.28491759 0.60999852 1.0694693e-38
0.34533951 0.28491583 0.60999864 1.0694693e-38
0.35515064 0.28516614 0.60999864 1.0694693e-38
0.36514717 0.28501451 0.6099987 1.0694693e-38
0.37533465 0.28506443 0.60999876 1.0694693e-38
0.38496763 0.28521109 0.60999876 1.0694693e-38
0.39477921 0.28490803 0.60999876 1.0694693e-38
0.40480322 0.28484151 0.60999876 1.0694693e-38
0.41487092 0.28495976 0.60999882 1.0694693e-38
0.42527637 0.28483862 0.60999882 1.0694693e-38
0.43500975 0.28509498 0.60999888 1.0694693e-38
0.44495672 0.28508517 0.60999906 1.0694693e-38
0.45499215 0.28509498 0.60999918 1.0694693e-38
0.46529314 0.28508502 0.6099993 1.0694693e-38
0.47477734 0.28497946 0.60999936 1.0694693e-38
0.48453167 0.28495669 0.60999936 1.0694693e-38
0.4945249 0.28692216 0.6099996 1.0694693e-38
0.50471544 0.28855556 0.6099996 1.0694693e-38
0.51553881 0.28835407 0.60999966 1.0694693e-38
0.52562433 0.28564841 0.60999984 1.0694693e-38
0.53567237 0.28504851 0.60999978 1.0694693e-38
0.54541707 0.28505313 0.60999823 1.0694693e-38
0.55537659 0.28571784 0.60999995 1.0694693e-38
0.86035085 0.28974575 0.60625738 1.0694693e-38
0.32999846 0.29511753 0.60389972 0
0.3350535 0.29493052 0.60999852 1.0694693e-38
0.34539402 0.2950767 0.60999864 1.0694693e-38
0.35515061 0.29502106 0.60999864 1.0694693e-38
0.36514717 0.29496264 0.6099987 1.0694693e-38
0.37533456 0.29510754 0.60999876 1.0694693e-38
0.38493019 0.29510519 0.60999876 1.0694693e-38
0.39477912 0.29502803 0.60999876 1.0694693e-38
0.40474579 0.29479185 0.60999876 1.0694693e-38
0.41489339 0.29489517 0.60981709 1.0694693e-38
0.4253155 0.29510021 0.60999882 1.0694693e-38
0.43505165 0.29492775 0.60999888 1.0694693e-38
0.44491401 0.29502273 0.60999912 1.0694693e-38
0.45503548 0.29510048 0.60999918 1.0694693e-38
0.4651804 0.2950702 0.6099993 1.0694693e-38
0.47488701 0.29499522 0.60999936 1.0694693e-38
0.48453298 0.29497063 0.6099993 1.0694693e-38
0.49539381 0.29491967 0.60999936 1.0694693e-38
0.50546718 0.29486111 0.6099996 1.0694693e-38
0.51470512 0.29501399 0.60999984 1.0694693e-38
0.52502477 0.29503149 0.60999995 1.0694693e-38
0.53567231 0.29493764 0.60999978 1.0694693e-38
0.54544342 0.29509836 0.60999984 1.0694693e-38
0.55522186 0.29598808 0.61000001 1.0694693e-38
0.32999846 0.30502552 0.60405135 0
0.33510047 0.30494487 0.60999852 1.0694693e-38
0.34533957 0.30504119 0.60999864 1.0694693e-38
0.35515049 0.30497658 0.60999864 1.0694693e-38
0.36514723 0.30491081 0.6099987 1.0694693e-38
0.37530401 0.30504844 0.6099987 1.0694693e-38
0.38496771 0.3049939 0.6099987 1.0694693e-38
0.39471421 0.30504429 0.60999876 1.0694693e-38
0.40476459 0.304988 0.60999876 1.0694693e-38
0.41500533 0.30493075 0.60999882 1.0694693e-38
0.42519251 0.30510944 0.60999882 1.0694693e-38
0.43505073 0.30502909 0.60999888 1.0694693e-38
0.44495675 0.30494153 0.60999906 1.0694693e-38
0.454992 0.30512503 0.60999918 1.0694693e-38
0.46538177 0.30503556 0.60999924 1.0694693e-38
0.47491592 0.30480155 0.60988277 1.0694693e-38
0.48460299 0.30510244 0.6099993 1.0694693e-38
0.49532107 0.30488622 0.60999936 1.0694693e-38
0.50540817 0.30498794 0.60999972 1.0694693e-38
0.5147053 0.30489758 0.60999972 1.0694693e-38
0.52523106 0.30510414 0.60999995 1.0694693e-38
0.53567237 0.30482671 0.60999984 1.0694693e-38
0.54544348 0.30506554 0.60999984 1.0694693e-38
0.5544315 0.30510572 0.60999978 1.0694693e-38
0.61283827 0.30864346 0.60449886 1.0694693e-38
0.32999846 0.31492794 0.60405153 0
0.33495966 0.31495419 0.60999852 1.0694693e-38
0.34525785 0.31500411 0.60999864 1.0694693e-38
0.35506594 0.3150329 0.60999864 1.0694693e-38
0.36506084 0.3149606 0.6099987 1.0694693e-38
0.37533459 0.31498843 0.6099987 1.0694693e-38
0.38491297 0.3150059 0.60999876 1.0694693e-38
0.3947157 0.31495446 0.60999876 1.0694693e-38
0.40468699 0.31506342 0.60999876 1.0694693e-38
0.41483745 0.3149195 0.60999882 1.0694693e-38
0.42537609 0.31498539 0.60999882 1.0694693e-38
0.43492568 0.31512359 0.60999882 1.0694693e-38
0.44485202 0.31500524 0.60999888 1.0694693e-38
0.45503554 0.31513125 0.60999918 1.0694693e-38
0.4652707 0.31501359 0.60999924 1.0694693e-38
0.47488546 0.31490958 0.60999936 1.0694693e-38
0.4845317 0.3149786 0.6099993 1.0694693e-38
0.49525034 0.3148582 0.60999936 1.0694693e-38
0.50537628 0.31518453 0.60986686 1.0694693e-38
0.5147658 0.3147856 0.60999978 1.0694693e-38
0.52507609 0.31518251 0.60999995 1.0694693e-38
0.53573477 0.31488505 0.60999984 1.0694693e-38
0.54544342 0.31503269 0.60999984 1.0694693e-38
0.55470634 0.31486309 0.60999984 1.0694693e-38
0.32999846 0.32506076 0.60420263 0
0.33500642 0.32496756 0.60999846 1.0694693e-38
0.34536725 0.32506576 0.60999864 1.0694693e-38
0.35515064 0.32498738 0.60999864 1.0694693e-38
0.36514717 0.3250092 0.6099987 1.0694693e-38
0.37533453 0.32503149 0.6099987 1.0694693e-38
0.38496763 0.32501787 0.60999876 1.0694693e-38
